2.357065781126187 -0.11642548545981002 0.5237292640356301 18.0 17.0 12.0
0.872415781126187 0.003709514540189973 -1.3171707359643694 51.0 20.0 11.0
-1.047724218873813 0.07754951454018988 -1.2779707359643702 38.0 24.0 16.0
-1.0195142188738133 -0.2840324854598101 -0.06747073596437048 33.0 23.0 19.0
0.44263578112618696 0.71426951454019 1.3177292640356306 66.0 45.0 40.0
0.03890578112618659 -0.7649324854598101 0.4710292640356304 116.0 78.0 35.0
1.645385781126187 -0.8320554854598101 0.8690292640356301 77.0 45.0 30.0
1.743605781126187 0.6777695145401899 1.1972292640356308 120.0 92.0 79.0
0.907265781126187 -0.34712448545981 -1.0265707359643699 68.0 35.0 8.0
1.7172257811261868 0.6534995145401898 1.08852926403563 56.0 25.0 7.0
0.44092578112618686 0.13214951454018986 0.7383292640356309 156.0 93.0 62.0
-1.7960442188738126 0.24393951454018992 1.6988292640356288 74.0 45.0 43.0
-1.2222142188738134 1.81426951454019 -1.6283707359643707 65.0 60.0 48.0
-1.3813542188738133 0.36109951454018985 0.13172926403563068 92.0 66.0 42.0
1.013075781126187 -0.29044448545981005 -1.0228707359643696 67.0 43.0 29.0
0.12487578112618714 1.47046951454019 -1.2229707359643704 249.0 220.0 204.0
-2.6741842188738127 0.7723095145401899 1.262729264035631 106.0 92.0 127.0
0.1387157811261872 -1.89979648545981 -1.2129707359643707 58.0 61.0 24.0
0.5256357811261871 -0.8009084854598101 -0.49457073596436985 68.0 54.0 48.0
0.011585781126187022 1.0985595145401899 1.2701292640356296 68.0 46.0 48.0
-0.5122842188738126 -0.97798948545981 -0.6146707359643706 112.0 95.0 83.0
-0.15460421887381326 0.45894951454019006 2.0819292640356313 58.0 44.0 68.0
2.793245781126187 -0.24324748545981 0.9824292640356305 174.0 142.0 129.0
-0.43280421887381326 0.9607295145401897 -1.154970735964369 92.0 56.0 48.0
-1.9949642188738128 0.22829951454019004 -0.6828707359643698 78.0 33.0 2.0
-1.6301042188738126 0.03639951454018986 -1.7675707359643695 33.0 26.0 18.0
0.12116578112618726 -0.6296584854598101 0.9652292640356297 151.0 99.0 84.0
2.074305781126187 -0.24480048545981004 0.9240292640356298 67.0 28.0 18.0
1.192655781126187 0.92598951454019 1.2481292640356294 182.0 144.0 129.0
1.4313657811261868 -0.46819448545981 1.21132926403563 88.0 55.0 44.0
-1.6200642188738126 -0.07186048545980994 0.27232926403562985 213.0 192.0 175.0
1.2348357811261872 1.1327195145401898 0.53142926403563 56.0 41.0 38.0
2.347075781126187 -0.49657648545981004 0.9343292640356307 133.0 93.0 82.0
-2.850084218873813 -0.14588248545981009 0.2531292640356302 85.0 61.0 58.0
-0.28716421887381305 0.25947951454019 1.2557292640356295 93.0 50.0 34.0
0.502505781126187 -0.90955048545981 -0.5547707359643699 75.0 52.0 36.0
0.7564657811261872 -0.48561248545981006 -1.1052707359643694 70.0 45.0 25.0
3.340365781126187 0.24577951454018998 0.36102926403563096 102.0 46.0 16.0
-1.2747742188738131 -0.44220748545981003 -1.17747073596437 91.0 49.0 36.0
0.9858757811261869 0.8483195145401901 -0.5553707359643703 133.0 89.0 70.0
-0.16838421887381294 -0.24009948545981008 -1.34057073596437 38.0 33.0 30.0
0.7987657811261872 0.98578951454019 1.0261292640356299 62.0 50.0 49.0
-0.2520242188738129 -1.53170448545981 -0.9209707359643691 96.0 85.0 52.0
3.253255781126187 0.1778795145401899 0.47472926403563065 190.0 154.0 130.0
2.005855781126187 -0.3398994854598101 -0.6147707359643704 44.0 29.0 6.0
-1.792914218873813 -0.91779448545981 -0.35547073596437073 131.0 79.0 66.0
0.7955857811261868 -0.5154154854598101 0.5849292640356296 174.0 127.0 99.0
0.1725257811261871 -2.21976048545981 -1.3765707359643695 45.0 41.0 25.0
2.210685781126187 -0.21854748545981006 0.9562292640356294 67.0 39.0 21.0
-0.717884218873813 -0.71456848545981 0.8624292640356295 161.0 124.0 98.0
1.454765781126187 0.30274951454018995 -1.8844707359643706 51.0 38.0 19.0
2.175175781126187 -0.39624848545981006 0.9060292640356309 49.0 31.0 21.0
1.031455781126187 -0.47544948545981003 -0.3393707359643692 47.0 28.0 24.0
-1.900414218873813 0.2925095145401899 -1.505570735964369 173.0 144.0 127.0
2.146585781126187 -0.31636948545981003 -0.39497073596436927 171.0 140.0 115.0
0.8085357811261868 -0.3038154854598101 0.3523292640356299 83.0 69.0 50.0
-2.2574542188738134 0.61931951454019 -1.8070707359643698 147.0 100.0 87.0
-0.4952542188738134 -0.46657348545981003 -1.4901707359643694 82.0 55.0 26.0
-1.840584218873813 0.5965395145401899 0.2558292640356292 142.0 113.0 105.0
0.13884578112618673 -0.18748448545981 -1.4800707359643699 45.0 29.0 20.0
0.19993578112618682 -0.07905048545980997 -0.8671707359643701 35.0 24.0 14.0
-1.285004218873813 1.1531995145401899 -0.27107073596437026 120.0 90.0 92.0
-0.9110942188738127 0.17954951454018997 0.45902926403562994 64.0 45.0 38.0
-0.4507542188738132 -0.6626764854598101 -1.5626707359643692 61.0 43.0 27.0
-0.8000042188738128 0.1954695145401899 -1.9767707359643705 134.0 128.0 99.0
1.354235781126187 -0.31906748545981 -0.4821707359643703 64.0 47.0 24.0
1.9949557811261869 -0.14840548545981003 0.77682926403563 81.0 49.0 34.0
-1.3711142188738128 1.01735951454019 0.6546292640356306 93.0 87.0 87.0
1.210055781126187 0.1723195145401899 -1.9663707359643698 55.0 39.0 15.0
-0.09718421887381279 1.4371395145401897 0.7994292640356306 125.0 113.0 118.0
2.654595781126187 -0.06279048545981003 0.28112926403563065 40.0 35.0 23.0
-2.324934218873813 0.20502951454018992 0.22062926403562955 108.0 71.0 57.0
0.26172578112618705 0.10186951454019 0.7962292640356292 102.0 61.0 39.0
1.0411657811261872 0.2219395145401899 -1.1925707359643702 104.0 69.0 49.0
-0.3519542188738134 -0.8610654854598101 0.7568292640356304 107.0 85.0 48.0
3.352055781126187 0.14671951454019005 1.02992926403563 62.0 36.0 26.0
2.051305781126187 0.43913951454018996 0.41202926403562934 172.0 60.0 17.0
0.09336578112618721 0.57258951454019 0.7073292640356303 86.0 83.0 88.0
1.4719457811261871 -0.44711148545981005 0.3833292640356305 51.0 44.0 38.0
-0.45971421887381325 -0.5149204854598101 -1.47007073596437 76.0 45.0 17.0
-0.612124218873813 1.2805495145401902 1.2954292640356293 87.0 58.0 81.0
2.184545781126187 0.8427395145401899 1.0452292640356298 58.0 34.0 30.0
-2.0693142188738127 0.025119514540189902 -1.3256707359643691 120.0 86.0 32.0
1.295955781126187 0.10020951454019 -0.6696707359643703 65.0 47.0 26.0
-0.7382242188738131 -0.23208448545981009 -1.5010707359643707 33.0 16.0 4.0
-1.6543842188738127 0.30482951454019 -1.8479707359643704 48.0 17.0 2.0
0.029135781126186977 1.4526595145401902 -1.1986707359643702 83.0 56.0 44.0
1.8574157811261869 -0.2908004854598101 -0.6897707359643697 49.0 30.0 17.0
-0.5461542188738129 0.2599695145401899 -0.043770735964370644 124.0 99.0 85.0
-1.9974042188738128 0.42999951454019003 -2.2523707359643694 116.0 71.0 61.0
-1.0529842188738128 0.06819951454018991 -1.21397073596437 61.0 42.0 35.0
-1.8944242188738132 -0.88114248545981 -0.5448707359643699 91.0 53.0 16.0
1.570505781126187 -0.4258504854598101 0.5900292640356302 215.0 196.0 182.0
0.19367578112618666 0.2918295145401899 0.4387292640356293 162.0 120.0 96.0
2.116165781126187 -0.2989314854598101 0.8786292640356308 130.0 84.0 68.0
1.0857657811261872 -0.70820948545981 0.8351292640356309 51.0 29.0 19.0
0.09782578112618712 -0.15427348545981 -1.5290707359643694 61.0 37.0 30.0
1.541685781126187 -0.47756548545981004 1.3060292640356295 168.0 102.0 83.0
0.901975781126187 -0.30140948545981006 -0.6746707359643693 71.0 34.0 11.0
0.38390578112618723 -0.3104294854598101 -0.17367073596436988 24.0 20.0 17.0
0.06877578112618732 1.41479951454019 -1.8729707359643708 69.0 41.0 23.0
2.073785781126187 -0.7297254854598101 0.8975292640356294 170.0 144.0 128.0
-1.611514218873813 -0.5954564854598101 -0.8713707359643692 73.0 48.0 43.0
-1.6531742188738132 0.1996395145401899 -1.9035707359643705 62.0 37.0 32.0
2.261195781126187 -0.7462804854598101 1.23412926403563 28.0 24.0 25.0
1.0178657811261869 0.8499895145401899 1.3663292640356293 142.0 98.0 89.0
1.365295781126187 -0.55740048545981 0.0758292640356295 61.0 34.0 15.0
0.3550057811261871 0.08690951454018991 1.006629264035631 128.0 56.0 4.0
1.0958757811261872 1.0924395145401902 1.028729264035631 112.0 71.0 62.0
-2.926944218873813 -0.35721848545981005 0.5499292640356295 149.0 82.0 26.0
-1.0592542188738134 -0.22427848545981 0.00872926403562957 30.0 21.0 24.0
0.10443578112618734 -0.42182848545981 -1.14697073596437 110.0 88.0 77.0
1.679355781126187 0.56040951454019 -0.39917073596437014 65.0 45.0 37.0
-1.5052542188738132 0.23381951454019 -1.6467707359643704 121.0 87.0 85.0
-0.23866421887381328 -0.38722348545981 -1.35047073596437 74.0 47.0 25.0
0.9062757811261868 -0.71043448545981 0.8510292640356294 149.0 85.0 60.0
-1.2189942188738128 -0.11154648545981005 -1.0992707359643692 130.0 97.0 87.0
-2.657094218873813 0.76479951454019 0.43352926403563075 51.0 37.0 39.0
-0.2673042188738126 0.90633951454019 1.454029264035631 90.0 85.0 93.0
1.1532357811261869 -0.51263048545981 1.09622926403563 174.0 132.0 133.0
0.35314578112618733 -1.4636354854598101 -1.0572707359643694 151.0 147.0 148.0
-1.8789742188738128 -0.32155148545981005 0.776429264035631 147.0 97.0 78.0
-1.4891942188738128 -0.42517248545981 -0.9345707359643693 106.0 62.0 42.0
-1.5915842188738134 -0.4742204854598101 0.9850292640356297 135.0 110.0 82.0
-1.775784218873813 -0.10322348545981008 -0.6503707359643691 78.0 42.0 40.0
0.3195657811261867 -0.07215048545981007 -0.7047707359643702 118.0 82.0 53.0
-1.887904218873813 0.10074951454018999 -1.9393707359643706 53.0 37.0 28.0
-2.667444218873813 0.8122295145401899 0.3498292640356304 58.0 62.0 77.0
-1.4125442188738129 -0.20811448545981004 -1.3328707359643701 99.0 69.0 63.0
0.10723578112618704 -0.13874848545981 -1.4593707359643702 61.0 40.0 35.0
-1.7207042188738129 0.35369951454019 1.1337292640356296 71.0 70.0 78.0
1.337505781126187 0.4641095145401899 1.1515292640356307 137.0 90.0 72.0
0.4712257811261873 -1.00321048545981 -0.6208707359643704 69.0 53.0 45.0
0.22491578112618704 0.12063951454018995 0.70592926403563 67.0 42.0 16.0
-0.8466242188738127 0.07705951454019 -1.0175707359643695 112.0 68.0 54.0
1.7403957811261872 0.41032951454018995 0.2682292640356305 58.0 39.0 24.0
-1.442384218873813 0.13216951454019 0.5798292640356308 171.0 158.0 142.0
-2.4588442188738133 -0.49318648545981003 1.05652926403563 170.0 136.0 116.0
1.6095757811261868 0.5590395145401899 1.054629264035631 82.0 51.0 42.0
-0.389854218873813 -0.12393948545981004 -1.5380707359643697 43.0 41.0 41.0
0.1329057811261869 -0.2811874854598101 -1.3418707359643705 52.0 33.0 26.0
-0.6206742188738126 -0.68852048545981 0.9772292640356302 105.0 53.0 30.0
-0.24954421887381262 -0.19286148545981008 -1.4063707359643693 23.0 24.0 26.0
1.267615781126187 -0.41765548545981 1.2515292640356304 69.0 40.0 40.0
0.6924557811261867 0.5590195145401899 -0.5865707359643704 133.0 81.0 75.0
1.553475781126187 0.75750951454019 1.0435292640356302 53.0 26.0 25.0
-0.7882042188738128 1.16730951454019 -1.7721707359643695 58.0 32.0 12.0
-2.4165142188738127 0.15893951454018995 -1.0237707359643693 55.0 32.0 23.0
-0.9912842188738127 1.02711951454019 -1.6368707359643704 107.0 71.0 52.0
-2.1675442188738128 0.33302951454019003 1.7535292640356293 103.0 89.0 90.0
0.9190657811261871 1.2267495145401899 1.3499292640356302 81.0 55.0 53.0
0.7053957811261871 -0.75247148545981 0.3153292640356309 74.0 41.0 29.0
-1.819914218873813 0.42369951454019006 0.36272926403563055 99.0 71.0 60.0
-0.30492421887381305 -0.14542248545981007 -0.37947073596436987 137.0 121.0 113.0
-0.747634218873813 0.013559514540189888 -0.4573707359643695 64.0 45.0 39.0
-1.8285342188738127 0.05886951454018985 0.41472926403563015 88.0 53.0 36.0
0.9068857811261868 -0.32104148545981004 0.4798292640356294 79.0 25.0 11.0
-2.661954218873813 0.3482995145401899 1.6871292640356312 68.0 73.0 94.0
-2.749134218873813 0.4251695145401899 2.2111292640356286 55.0 58.0 101.0
0.38404578112618726 -0.012480485459809953 -1.3696707359643696 105.0 82.0 40.0
-1.0184142188738132 0.09394951454018985 -0.3425707359643706 166.0 107.0 81.0
-1.735014218873813 0.13586951454019003 0.2700292640356299 62.0 34.0 21.0
-0.6897242188738133 0.18782951454019003 -1.0571707359643696 130.0 72.0 53.0
0.9421257811261872 1.18629951454019 0.7207292640356293 66.0 45.0 24.0
-2.573834218873813 0.6055495145401899 -2.0109707359643707 73.0 48.0 46.0
1.002305781126187 -0.65332048545981 0.34042926403562923 34.0 21.0 15.0
1.351995781126187 1.21245951454019 0.6982292640356302 113.0 95.0 80.0
-1.7426542188738132 0.2089595145401899 1.3145292640356292 43.0 38.0 46.0
2.483125781126187 -0.80664448545981 1.2457292640356297 72.0 40.0 29.0
0.2335557811261868 -0.3953224854598101 1.0392292640356295 246.0 220.0 203.0
-1.0187642188738133 -0.002790485459809977 0.9885292640356305 198.0 159.0 143.0
-1.9090142188738133 0.23936951454018995 1.7524292640356318 40.0 39.0 56.0
-0.46464421887381313 -0.3370614854598101 -0.46197073596436944 126.0 106.0 89.0
0.15782578112618673 -0.10009848545981004 -1.0677707359643698 170.0 127.0 110.0
-2.4847442188738134 -0.13341448545981005 0.4430292640356299 52.0 32.0 20.0
-1.2754542188738132 -0.29244648545981 -1.4424707359643705 69.0 58.0 55.0
1.0583757811261871 -0.5988684854598101 0.7910292640356307 82.0 42.0 42.0
2.080025781126187 -0.7712724854598101 1.0080292640356294 84.0 47.0 33.0
0.32568578112618685 -1.59547648545981 -1.1296707359643694 62.0 58.0 59.0
-0.37602421887381343 0.21564951454019 1.6816292640356298 82.0 73.0 78.0
-0.947684218873813 0.3297895145401899 -1.15987073596437 120.0 80.0 53.0
-0.2124942188738128 0.2151595145401899 1.37822926403563 71.0 38.0 24.0
-1.6896342188738132 0.20290951454019002 0.3979292640356302 133.0 116.0 99.0
0.07305578112618694 -0.045420485459810145 -1.4476707359643708 59.0 53.0 51.0
-1.2856742188738126 -0.05368048545981008 -1.0566707359643708 74.0 45.0 34.0
-2.417844218873813 0.31501951454018995 -1.2055707359643701 103.0 68.0 62.0
1.7586957811261872 0.55352951454019 1.0892292640356303 70.0 41.0 35.0
1.0636857811261868 0.93582951454019 -0.7028707359643693 111.0 55.0 43.0
0.12459578112618708 -0.6757224854598101 0.39892926403562967 90.0 56.0 18.0
0.48225578112618717 0.006659514540189981 -0.4753707359643702 164.0 94.0 64.0
1.6465257811261869 0.4586895145401899 -2.064970735964369 66.0 48.0 26.0
1.1929457811261872 0.25655951454019 -1.8672707359643699 46.0 43.0 36.0
0.16535578112618676 -2.19942048545981 -1.3118707359643693 34.0 24.0 11.0
1.5697657811261871 -0.9334944854598101 0.9690292640356297 99.0 61.0 50.0
-0.36082421887381333 -0.5129754854598101 -1.5604707359643708 91.0 72.0 39.0
0.6312157811261869 0.6867895145401899 -0.7820707359643695 137.0 101.0 93.0
-1.9102042188738126 -0.49280348545981 -0.9222707359643696 99.0 55.0 49.0
-2.547624218873813 0.73201951454019 1.1334292640356303 66.0 69.0 75.0
-2.249154218873813 -0.19611148545981005 0.7138292640356294 62.0 35.0 20.0
-2.344294218873813 0.16632951454018996 0.2904292640356303 58.0 45.0 28.0
2.628645781126187 -0.01445048545980998 0.32572926403562974 35.0 30.0 24.0
0.16345578112618675 1.22643951454019 -2.096270735964369 76.0 61.0 28.0
-1.7611142188738134 0.19941951454019002 2.0266292640356287 47.0 53.0 74.0
2.207335781126187 0.8168395145401899 -0.05667073596437078 118.0 62.0 19.0
-0.6871842188738126 -0.05582048545981011 -0.45887073596436956 47.0 28.0 24.0
0.21662578112618736 -1.87616948545981 -1.27727073596437 79.0 66.0 56.0
1.758615781126187 0.62932951454019 1.0636292640356295 79.0 39.0 30.0
-0.6473942188738127 -0.64138848545981 -0.51127073596437 35.0 31.0 30.0
-1.1751042188738126 -0.11720648545981005 -1.0893707359643692 93.0 63.0 56.0
-2.3242242188738134 -0.76296648545981 -0.6691707359643697 157.0 111.0 88.0
2.294645781126187 -0.04601048545981001 -0.2521707359643699 29.0 29.0 19.0
-1.8867542188738131 0.19480951454019002 0.4466292640356304 227.0 230.0 230.0
1.640775781126187 0.73835951454019 -0.46887073596436935 79.0 43.0 32.0
0.8328857811261869 -0.50523248545981 0.6710292640356297 197.0 118.0 96.0
2.122985781126187 -0.24298348545981008 -0.6334707359643694 57.0 35.0 12.0
1.5577157811261868 0.55549951454019 -0.05577073596436932 113.0 89.0 74.0
1.516605781126187 0.9802795145401899 -0.6761707359643694 90.0 76.0 60.0
-0.7774042188738131 -0.41595448545981006 -0.1688707359643704 229.0 204.0 189.0
-1.082234218873813 -0.08175048545981012 0.42822926403563066 41.0 17.0 7.0
-0.45818421887381255 -0.87927848545981 1.0622292640356292 152.0 104.0 89.0
1.5458457811261872 -0.72075148545981 0.8723292640356295 103.0 56.0 42.0
-1.7115142188738126 -0.45703248545981 1.1912292640356306 81.0 43.0 23.0
-1.4123442188738133 -0.40508048545981 -0.9747707359643698 92.0 56.0 47.0
0.2698557811261866 0.8169395145401899 0.6760292640356305 68.0 41.0 29.0
0.09081578112618693 0.29264951454018995 0.29392926403562925 172.0 156.0 156.0
2.566975781126187 -0.4819264854598101 0.7467292640356309 170.0 96.0 53.0
-1.3027542188738126 -0.15168248545981 -1.0765707359643706 141.0 94.0 80.0
-1.5776942188738126 0.45256951454019 -1.9154707359643695 165.0 124.0 113.0
-0.8739342188738126 0.15069951454018993 -1.0999707359643693 117.0 53.0 21.0
1.391535781126187 -0.3561314854598101 -0.3184707359643699 68.0 37.0 19.0
2.497885781126187 -0.6209384854598101 0.9553292640356297 199.0 151.0 120.0
0.042085781126186994 -0.5810504854598101 0.7860292640356299 112.0 82.0 72.0
-0.15519421887381313 -0.4530504854598101 0.26262926403562936 79.0 45.0 35.0
-0.2895642188738128 -0.71524048545981 1.1070292640356296 141.0 87.0 44.0
1.287055781126187 -0.36051748545981 1.0884292640356303 85.0 33.0 18.0
1.9396957811261868 0.64525951454019 0.8321292640356308 81.0 60.0 41.0
-0.2209742188738133 -0.90621648545981 -0.7745707359643692 107.0 89.0 78.0
-2.517104218873813 0.44669951454018997 -1.2804707359643697 103.0 60.0 44.0
-0.4917742188738128 -1.20623448545981 -0.7868707359643707 44.0 30.0 22.0
-1.950384218873813 0.29608951454019006 -2.2397707359643704 96.0 58.0 38.0
0.3205757811261867 0.11168951454018994 0.8313292640356309 82.0 31.0 13.0
-1.6266342188738134 0.0946695145401899 -1.7913707359643691 34.0 24.0 19.0
1.0646257811261872 0.9228895145401901 -0.7853707359643707 56.0 21.0 7.0
-0.4319542188738126 -0.66406048545981 -1.4458707359643697 60.0 43.0 27.0
0.6105357811261873 -0.5783474854598101 0.6414292640356294 133.0 112.0 95.0
-1.734424218873813 0.11337951454018991 0.3341292640356297 59.0 33.0 6.0
-1.1764342188738128 -0.08415048545981008 0.47062926403562955 146.0 124.0 108.0
2.065455781126187 -0.6321184854598101 0.7539292640356301 56.0 34.0 26.0
1.0713357811261872 0.9338995145401898 0.7623292640356301 118.0 81.0 39.0
-0.31285421887381304 0.27195951454018985 1.6751292640356308 65.0 48.0 39.0
1.996245781126187 0.66585951454019 -0.6963707359643703 161.0 125.0 93.0
-0.14090421887381321 0.13037951454019003 -1.499470735964369 43.0 31.0 20.0
0.2793757811261868 -0.62786548545981 0.9270292640356299 128.0 95.0 64.0
1.5549857811261871 0.23200951454018992 -1.8729707359643708 56.0 41.0 22.0
-1.374464218873813 0.65866951454019 -0.3453707359643694 71.0 54.0 47.0
0.3630857811261867 -2.4196104854598097 -1.3251707359643703 204.0 182.0 151.0
-1.3702742188738126 -0.16423648545981007 -1.3277707359643696 46.0 35.0 26.0
1.246065781126187 -0.6937924854598101 0.7112292640356301 46.0 28.0 22.0
1.3096657811261871 0.5095295145401899 -0.2181707359643692 30.0 18.0 10.0
1.382095781126187 -0.54155048545981 1.2557292640356295 60.0 41.0 30.0
-1.7001442188738132 -0.9404104854598101 -0.28497073596436984 137.0 75.0 64.0
1.398255781126187 -0.4838524854598101 0.4665292640356302 42.0 31.0 25.0
-1.166554218873813 0.9914995145401901 1.0077292640356301 46.0 43.0 55.0
-1.316254218873813 1.26723951454019 0.5122292640356303 103.0 49.0 36.0
0.8921257811261869 1.1315495145401901 1.4288292640356293 105.0 79.0 82.0
0.005685781126186562 -0.5103374854598101 0.7813292640356302 94.0 64.0 59.0
-1.744444218873813 0.78092951454019 0.651429264035631 107.0 63.0 64.0
-1.3816242188738128 0.87200951454019 0.5297292640356304 105.0 106.0 116.0
2.473705781126187 -0.19627448545981008 1.2014292640356299 99.0 42.0 13.0
-0.3161342188738132 0.16951951454018999 0.21752926403562967 56.0 26.0 24.0
1.9574657811261869 -0.24695448545981002 0.8108292640356307 165.0 122.0 106.0
1.4596257811261868 -0.51333548545981 1.2077292640356294 49.0 25.0 19.0
-0.43945421887381286 0.22153951454018994 1.2043292640356302 77.0 50.0 33.0
-1.908954218873813 0.7322395145401899 0.38202926403563 32.0 36.0 71.0
-0.19473421887381281 -0.29040448545981 -0.7854707359643704 99.0 86.0 83.0
0.223485781126187 -0.2115214854598101 -1.3390707359643699 73.0 56.0 48.0
-0.1853242188738129 1.0034395145401898 0.5112292640356308 8.0 10.0 14.0
0.8905657811261873 -0.67055548545981 0.33482926403562985 44.0 22.0 1.0
2.312715781126187 -0.83056248545981 1.1775292640356305 39.0 29.0 25.0
-2.397484218873813 0.06187951454019003 0.39802926403563 131.0 92.0 70.0
1.354325781126187 -0.3073754854598101 -0.49527073596437 81.0 52.0 20.0
2.241685781126187 -0.20906148545981007 1.1517292640356303 80.0 29.0 10.0
-2.182344218873813 0.21123951454018997 -1.3486707359643706 46.0 33.0 25.0
-1.0625942188738131 0.5819895145401899 -1.5701707359643695 104.0 59.0 29.0
-0.416294218873813 -0.19120148545981008 -0.37737073596436943 51.0 33.0 25.0
-0.8723342188738128 1.0487895145401898 -1.58677073596437 155.0 105.0 70.0
-1.1952642188738132 0.14229951454018996 -1.1412707359643708 71.0 33.0 12.0
0.872205781126187 -0.34632648545981004 -0.9481707359643696 113.0 72.0 56.0
-2.9011542188738133 -0.15720748545981 0.3529292640356303 85.0 61.0 49.0
2.954435781126187 0.14997951454018987 0.8986292640356304 190.0 106.0 80.0
1.626605781126187 0.27798951454019005 -1.2541707359643706 66.0 40.0 23.0
-1.8322742188738133 -0.43202948545981 1.1275292640356298 162.0 113.0 94.0
-2.139994218873813 0.33033951454018995 -1.0223707359643708 58.0 29.0 21.0
1.379675781126187 0.33814951454019004 -1.72317073596437 62.0 36.0 8.0
-1.4368742188738128 -0.21301448545981005 -1.2584707359643694 67.0 47.0 38.0
0.3251857811261871 -2.26794048545981 -1.2737707359643693 201.0 191.0 156.0
-1.019524218873813 0.030609514540189897 0.9608292640356293 232.0 199.0 180.0
0.6534957811261872 -0.1244164854598101 -0.3552707359643694 86.0 79.0 71.0
-2.8028742188738134 0.5024395145401899 1.6927292640356288 92.0 106.0 129.0
-0.28417421887381256 -1.03956848545981 -0.8347707359643692 43.0 23.0 17.0
-0.46714421887381263 0.06542951454018997 -1.0974707359643698 115.0 92.0 74.0
-1.9558342188738127 -0.58357748545981 1.1395292640356303 202.0 166.0 134.0
-2.215684218873813 0.22423951454018987 -0.7839707359643704 67.0 28.0 20.0
-0.05096421887381286 1.08528951454019 1.4161292640356304 108.0 98.0 119.0
-0.37620421887381283 0.26306951454019 1.1908292640356297 56.0 35.0 24.0
1.141995781126187 0.12722951454019005 -1.9783707359643703 56.0 38.0 21.0
-0.817454218873813 0.11741951454018995 -1.91147073596437 74.0 58.0 31.0
-1.444494218873813 0.09347951454018988 1.087429264035631 107.0 89.0 72.0
1.834925781126187 -0.65200348545981 1.0162292640356299 120.0 59.0 16.0
-0.4623142188738134 1.0605995145401899 -1.30777073596437 81.0 39.0 9.0
-0.33007421887381305 0.12623951454019 1.5316292640356295 89.0 43.0 35.0
-2.1366742188738126 0.3153495145401899 -1.1698707359643699 56.0 28.0 17.0
0.8246457811261871 -0.48857548545981 0.6570292640356303 170.0 102.0 77.0
0.5879657811261874 -0.33891348545981004 0.07452926403563076 207.0 152.0 132.0
1.130675781126187 1.0940095145401898 0.10712926403562939 63.0 46.0 28.0
-2.992894218873813 0.81248951454019 0.31652926403562986 75.0 71.0 85.0
-1.0717342188738126 0.4283195145401899 -0.5348707359643701 136.0 107.0 107.0
-1.467134218873813 0.08882951454019006 0.9994292640356299 71.0 52.0 38.0
-0.6193242188738131 -0.25104448545981006 -0.6160707359643691 55.0 46.0 49.0
0.6854157811261867 -0.3900484854598101 0.07942926403563 150.0 91.0 72.0
1.6606757811261872 0.79325951454019 0.8300292640356304 69.0 33.0 19.0
0.09719578112618699 -0.17984148545981005 -1.2992707359643703 65.0 40.0 33.0
-0.8457842188738134 -0.13368448545981004 -1.8747707359643702 31.0 18.0 15.0
0.08081578112618715 0.009659514540189873 -2.5324707359643703 71.0 42.0 18.0
1.327615781126187 0.49679951454019 1.0135292640356308 66.0 53.0 47.0
-0.2708342188738131 0.35841951454019005 0.2848292640356309 90.0 76.0 66.0
-0.04373421887381301 -1.57092848545981 -1.0881707359643702 113.0 113.0 69.0
1.8151057811261868 -0.42688848545981006 0.8038292640356293 109.0 56.0 12.0
-1.8149542188738126 -0.26955648545981004 -1.3179707359643693 41.0 31.0 30.0
-1.750494218873813 0.18477951454019004 1.4259292640356307 93.0 109.0 134.0
1.6172457811261869 -0.72438848545981 0.8960292640356293 143.0 99.0 83.0
-0.9555742188738128 0.13834951454018984 0.47382926403563097 48.0 36.0 29.0
-2.257064218873813 0.15341951454018998 0.40922926403563054 171.0 139.0 122.0
-0.0593542188738132 -1.01283848545981 -1.40687073596437 79.0 64.0 60.0
1.441155781126187 0.60684951454019 0.7459292640356292 69.0 45.0 30.0
2.255335781126187 -0.21816448545981004 0.8999292640356309 56.0 36.0 31.0
-1.960354218873813 0.08550951454018985 2.1345292640356295 76.0 53.0 48.0
-1.873784218873813 0.35789951454019 -2.1376707359643703 116.0 74.0 75.0
-0.33807421887381306 0.2941695145401899 1.5945292640356303 64.0 31.0 14.0
0.20637578112618726 -0.46888248545981004 -1.2489707359643702 62.0 43.0 36.0
0.073945781126187 0.17011951454018992 -0.05377073596437043 82.0 40.0 17.0
0.437215781126187 0.21466951454019 -0.8136707359643705 43.0 34.0 24.0
-1.3099042188738128 0.8709295145401899 1.2218292640356303 58.0 23.0 48.0
-0.5091942188738132 -0.28842848545981004 -0.46387073596437034 182.0 152.0 126.0
-0.5706542188738126 -0.3730874854598101 -1.5050707359643702 67.0 45.0 34.0
-1.2031242188738132 0.29517951454018987 -1.3981707359643707 80.0 46.0 18.0
-0.6262742188738128 -0.2752534854598101 -1.85727073596437 55.0 42.0 24.0
1.553485781126187 -0.39900548545981007 0.7284292640356309 90.0 45.0 29.0
-1.7311042188738126 -0.41432848545981005 0.9238292640356303 190.0 140.0 112.0
-2.0378842188738133 0.27619951454018987 1.8772292640356287 94.0 73.0 70.0
-0.313254218873813 0.24633951454018987 1.1314292640356296 66.0 36.0 26.0
0.4389857811261866 0.24333951454018998 0.4295292640356294 189.0 144.0 93.0
0.9571957811261869 1.16346951454019 1.4204292640356293 78.0 48.0 36.0
2.295545781126187 -0.86957248545981 1.1421292640356295 32.0 22.0 20.0
-0.304714218873813 -0.4049094854598101 -1.4413707359643695 89.0 56.0 44.0
1.362995781126187 0.58109951454019 0.4502292640356309 66.0 34.0 15.0
-1.8702542188738134 0.22019951454019004 2.0590292640356314 112.0 101.0 123.0
0.7986357811261868 -0.52818948545981 -0.5085707359643692 69.0 59.0 56.0
-2.334154218873813 -0.016600485459810077 0.4326292640356293 86.0 56.0 40.0
-0.5436942188738128 -0.5778924854598101 -0.5534707359643694 111.0 74.0 58.0
-1.2243442188738127 -0.05171048545981005 -1.1197707359643694 64.0 39.0 34.0
-0.5148942188738133 -0.27883348545981 -1.7327707359643707 86.0 64.0 25.0
-2.259734218873813 0.20187951454018993 2.4659292640356316 120.0 104.0 123.0
-0.4478442188738132 0.2315995145401899 -0.08307073596436965 77.0 37.0 26.0
0.6681157811261871 -0.55642348545981 0.5664292640356301 96.0 55.0 26.0
1.404085781126187 -0.8239094854598101 0.8456292640356295 131.0 94.0 80.0
-0.41046421887381257 -0.13927848545981003 -1.5507707359643703 32.0 32.0 32.0
-0.6269342188738127 -0.67755548545981 0.8315292640356304 174.0 146.0 136.0
-1.0208942188738126 1.6070095145401901 -1.46557073596437 162.0 149.0 129.0
-0.18823421887381286 -0.55963948545981 -1.5022707359643697 34.0 28.0 17.0
0.16697578112618672 -0.63508248545981 0.9795292640356301 205.0 153.0 135.0
0.7659157811261874 -0.44529248545981004 -0.33527073596436985 91.0 45.0 22.0
0.5054257811261866 0.80096951454019 1.2911292640356304 64.0 47.0 46.0
-0.001234218873812587 -0.23795848545981002 -1.2596707359643702 36.0 22.0 19.0
-1.4220042188738127 0.9948495145401899 0.16332926403562986 104.0 94.0 91.0
-2.371034218873813 0.42717951454019 -1.6413707359643706 145.0 96.0 93.0
-2.1492942188738127 0.04067951454018992 0.3861292640356293 127.0 97.0 79.0
-0.557084218873813 -0.38818248545981004 -1.6784707359643694 71.0 48.0 37.0
0.41602578112618716 -2.27042048545981 -1.3456707359643705 229.0 218.0 197.0
1.655775781126187 -1.03366648545981 0.8514292640356302 70.0 34.0 22.0
-1.2778842188738126 0.88128951454019 1.2729292640356302 101.0 97.0 131.0
1.189185781126187 0.9711595145401901 -0.44117073596436995 110.0 63.0 56.0
-1.2190642188738128 1.29447951454019 0.5843292640356292 107.0 51.0 56.0
-0.3265442188738126 -1.4224504854598101 -0.8633707359643701 48.0 34.0 21.0
-1.0368542188738132 0.5896195145401899 0.7619292640356292 92.0 82.0 87.0
0.2936257811261873 -0.40042748545981 0.9613292640356299 82.0 53.0 42.0
0.6716657811261868 0.53461951454019 -0.009470735964370647 60.0 43.0 37.0
-0.01350421887381259 -0.23364248545981003 -1.26507073596437 37.0 26.0 22.0
-0.06257421887381298 -0.87184348545981 1.1182292640356302 83.0 38.0 16.0
-0.0815642188738126 -0.48525748545981007 1.0331292640356295 130.0 89.0 78.0
-0.9779142188738126 0.1871295145401899 -1.1711707359643704 112.0 65.0 46.0
0.3480457811261868 1.08875951454019 1.28142926403563 73.0 40.0 33.0
0.2466857811261871 -0.30965948545981004 0.3694292640356309 61.0 45.0 31.0
0.3146157811261867 -1.75484948545981 -1.1406707359643704 108.0 98.0 87.0
-1.3956342188738127 -0.016700485459810066 0.18102926403562947 168.0 134.0 101.0
1.209795781126187 0.1949595145401899 -1.86797073596437 52.0 39.0 31.0
-0.27282421887381325 -0.87121748545981 -1.3814707359643705 66.0 44.0 33.0
2.453305781126187 -0.1774954854598101 1.2629292640356304 132.0 82.0 66.0
-1.8231642188738126 0.23243951454018985 1.7366292640356296 90.0 79.0 88.0
-1.9592942188738132 0.018509514540189898 -1.3094707359643696 117.0 77.0 56.0
-1.8288642188738127 -0.5379814854598101 -0.9804707359643707 71.0 44.0 37.0
2.416445781126187 0.7903095145401899 0.010829264035630004 154.0 88.0 33.0
-0.8938642188738131 1.12046951454019 1.0766292640356294 69.0 73.0 86.0
0.18402578112618695 -0.17863648545981003 -1.2633707359643704 117.0 69.0 41.0
-0.8255742188738129 0.33165951454018994 -0.5232707359643705 62.0 47.0 44.0
-0.00855421887381258 -0.33416548545981006 -1.3025707359643697 53.0 33.0 22.0
-0.8735542188738128 0.10071951454019001 -1.0510707359643696 144.0 87.0 67.0
0.05869578112618701 1.20967951454019 1.3886292640356306 56.0 73.0 101.0
-0.22020421887381314 -0.00972048545981008 -1.5713707359643703 29.0 33.0 32.0
0.7370657811261871 0.80410951454019 -0.6353707359643703 23.0 19.0 16.0
-2.2431142188738127 -0.12618748545981007 0.595029264035631 74.0 47.0 35.0
-1.761004218873813 0.28456951454018986 1.9660292640356314 59.0 65.0 77.0
1.283485781126187 0.06736951454019002 -0.6940707359643703 100.0 56.0 43.0
-1.6863942188738132 0.70964951454019 1.1256292640356307 56.0 47.0 51.0
1.272165781126187 -0.6417324854598101 0.8143292640356297 66.0 44.0 33.0
-1.8874942188738126 0.29153951454019 1.9718292640356285 132.0 87.0 90.0
1.054015781126187 0.5623395145401899 0.41752926403563073 89.0 72.0 62.0
0.577205781126187 1.8166995145401899 -0.6879707359643703 46.0 41.0 37.0
2.417005781126187 -0.09138748545981001 1.220029264035631 60.0 31.0 23.0
1.680905781126187 -0.17442348545981 1.2752292640356302 123.0 76.0 53.0
-1.2050942188738132 -0.06547048545981005 -1.1426707359643693 53.0 39.0 29.0
-1.1982842188738134 1.50577951454019 0.6860292640356302 68.0 73.0 88.0
-1.0723242188738134 0.32732951454019 -0.45507073596436953 23.0 17.0 12.0
1.129205781126187 -0.57431448545981 0.8158292640356297 76.0 50.0 49.0
2.470105781126187 -0.4931224854598101 0.8333292640356298 190.0 136.0 103.0
-0.5950942188738129 -0.22253648545981008 -1.7530707359643696 118.0 81.0 45.0
1.194865781126187 -0.49738748545981004 0.7952292640356298 51.0 33.0 29.0
-0.8559742188738131 -0.39874948545981004 -0.6388707359643693 74.0 53.0 51.0
-1.5626142188738132 1.14317951454019 0.3025292640356305 74.0 73.0 81.0
1.468735781126187 -1.26707548545981 0.8102292640356303 115.0 82.0 75.0
0.5442857811261872 0.47697951454019005 -0.02237073596437078 155.0 127.0 113.0
-0.5271542188738128 0.29466951454018986 -0.004670735964369399 69.0 41.0 36.0
-0.7011542188738131 -0.24187248545981 -1.61947073596437 93.0 71.0 29.0
1.411735781126187 -0.44788548545981 0.7495292640356297 38.0 28.0 18.0
0.8106457811261869 -0.035110485459810103 -0.5358707359643695 150.0 128.0 120.0
-1.0380842188738129 -0.23785048545981002 -1.5412707359643694 32.0 25.0 23.0
2.514975781126187 0.018099514540189876 0.2193292640356308 22.0 21.0 16.0
0.8865257811261866 1.06788951454019 0.7942292640356303 97.0 48.0 36.0
-1.732644218873813 -0.8382364854598101 -0.5283707359643692 98.0 76.0 63.0
-1.8528042188738132 0.4652595145401899 -2.3452707359643696 85.0 37.0 16.0
0.4094057811261873 -2.25010048545981 -1.4036707359643703 211.0 196.0 174.0
1.102425781126187 0.06916951454019005 -0.8278707359643693 84.0 53.0 51.0
-0.5116542188738133 -0.28578748545981003 -1.7931707359643703 55.0 39.0 26.0
1.6567457811261872 -0.31651548545981 0.8848292640356306 142.0 84.0 63.0
-1.8882642188738128 -0.4446144854598101 0.9817292640356303 111.0 66.0 42.0
1.8962957811261871 0.43084951454019005 -0.8652707359643692 130.0 73.0 53.0
-1.636734218873813 0.22409951454019006 0.41342926403562963 141.0 124.0 99.0
0.08172578112618734 -0.17186748545981 -1.5020707359643701 71.0 46.0 39.0
1.5524757811261871 1.07607951454019 -0.6724707359643691 52.0 30.0 8.0
-2.298854218873813 0.16059951454018995 0.38872926403563035 129.0 102.0 90.0
1.136505781126187 1.02605951454019 0.13212926403562975 48.0 30.0 21.0
-0.6270342188738134 -0.47740248545981 -0.5264707359643701 46.0 40.0 40.0
-2.2567042188738133 0.50967951454019 1.8383292640356306 115.0 102.0 102.0
2.9710157811261872 0.12809951454018997 0.9500292640356296 172.0 128.0 101.0
-2.227784218873813 0.30207951454019 -1.0511707359643694 70.0 40.0 38.0
1.5307957811261872 0.48642951454019 1.1329292640356297 111.0 93.0 75.0
-3.0187642188738133 0.81268951454019 0.33782926403562996 71.0 64.0 80.0
-0.15290421887381278 -1.67351748545981 -1.0510707359643696 41.0 33.0 30.0
2.141575781126187 -0.25976848545981 0.9181292640356293 94.0 64.0 53.0
-2.229054218873813 0.1985195145401899 -1.0010707359643707 51.0 35.0 29.0
-0.35246421887381274 0.21152951454018987 0.0578292640356306 50.0 30.0 19.0
2.121945781126187 -0.6595304854598101 1.050829264035631 141.0 86.0 73.0
-0.982384218873813 0.2922395145401899 -1.1805707359643698 110.0 64.0 41.0
0.5949757811261867 -0.24257248545981003 0.5097292640356308 190.0 144.0 122.0
0.15911578112618674 -0.05825048545981004 1.1463292640356304 190.0 126.0 38.0
1.9750157811261868 -0.5591714854598101 0.7859292640356301 135.0 85.0 34.0
1.043185781126187 0.86895951454019 0.43212926403563046 57.0 40.0 28.0
3.495845781126187 0.08192951454018993 0.8437292640356304 72.0 14.0 0.0
-0.1470542188738131 -0.45029648545981005 0.2523292640356303 69.0 44.0 25.0
-0.7219342188738134 0.9204495145401901 -0.1672707359643706 65.0 51.0 62.0
0.2202557811261867 -0.3135574854598101 0.47192926403563007 46.0 29.0 15.0
-0.12882421887381312 1.3562895145401899 0.8322292640356306 109.0 116.0 133.0
-1.3508442188738128 1.1095395145401898 -0.26167073596436907 88.0 61.0 64.0
3.353385781126187 0.11742951454019002 0.9763292640356305 118.0 86.0 63.0
-0.30658421887381326 -0.75861248545981 -0.6792707359643693 172.0 135.0 103.0
1.062205781126187 -0.5348894854598101 0.19372926403563007 52.0 37.0 11.0
-0.3570042188738132 -0.8068344854598101 -0.6978707359643703 48.0 39.0 34.0
-1.592414218873813 0.13836951454018998 -1.27427073596437 70.0 33.0 16.0
-2.284884218873813 0.4056795145401899 1.4265292640356293 70.0 77.0 92.0
1.159275781126187 -0.65208948545981 0.8347292640356301 122.0 85.0 55.0
-1.2113042188738126 0.09600951454019002 -1.2691707359643694 79.0 50.0 42.0
-1.9063742188738129 0.7383395145401899 0.3246292640356305 110.0 115.0 132.0
1.045275781126187 1.1285795145401898 0.9990292640356309 114.0 83.0 74.0
-2.361094218873813 -0.20562748545981002 0.6969292640356297 106.0 73.0 66.0
-1.2155342188738132 0.05376951454018997 -1.7815707359643707 43.0 33.0 26.0
-1.9032942188738131 0.71743951454019 -2.6295707359643696 53.0 28.0 21.0
1.869175781126187 -0.7459604854598101 0.8672292640356307 50.0 29.0 19.0
-1.1529142188738133 0.73452951454019 -1.5610707359643694 98.0 51.0 23.0
-0.24939421887381297 1.0328595145401898 0.17342926403562942 90.0 65.0 60.0
0.232025781126187 -0.18303448545981005 -1.29407073596437 55.0 44.0 40.0
2.441355781126187 -0.5969704854598101 0.99632926403563 182.0 128.0 111.0
-2.5772042188738133 0.5207195145401899 -1.9490707359643693 68.0 33.0 32.0
-0.8460842188738127 0.24479951454019 0.5741292640356299 60.0 53.0 43.0
0.3833857811261874 -0.08437048545980996 -0.71937073596437 53.0 36.0 27.0
1.323285781126187 -0.60193548545981 0.4494292640356292 42.0 25.0 18.0
-1.7798742188738128 -0.95761548545981 -0.2733707359643702 120.0 64.0 55.0
1.542885781126187 -0.97626348545981 0.7591292640356304 39.0 30.0 21.0
-0.761664218873813 -0.75901648545981 0.9809292640356304 111.0 69.0 47.0
1.3490457811261871 -0.87786548545981 0.77532926403563 70.0 60.0 51.0
-0.616394218873813 -0.74864448545981 -0.6012707359643699 41.0 25.0 19.0
-0.5729542188738126 -0.28920048545981003 -1.6510707359643693 77.0 56.0 21.0
2.344855781126187 -0.56458148545981 0.9829292640356293 190.0 133.0 103.0
-0.20904421887381286 -0.03132048545981014 -0.29757073596437067 46.0 24.0 12.0
-1.8255342188738126 -0.15854048545981003 -0.6430707359643701 92.0 53.0 46.0
1.266725781126187 1.1647195145401898 0.3700292640356295 77.0 56.0 46.0
0.013745781126186962 -0.20553048545981 -1.1416707359643699 53.0 29.0 26.0
0.8633657811261868 -0.42823548545981005 0.5638292640356308 227.0 181.0 148.0
-1.112524218873813 -0.1981204854598101 0.06592926403562949 80.0 63.0 57.0
-1.0982642188738128 -0.3561464854598101 -1.3514707359643694 89.0 62.0 37.0
-0.4205542188738134 0.2825395145401899 1.2416292640356303 98.0 60.0 40.0
2.257515781126187 -0.6285004854598101 0.8683292640356299 60.0 33.0 26.0
1.8845057811261872 0.71889951454019 -0.7970707359643701 58.0 46.0 30.0
-2.5526142188738126 0.38107951454018996 1.5972292640356294 67.0 48.0 48.0
-0.1737842188738128 1.2748795145401899 0.8236292640356293 89.0 87.0 101.0
-1.815834218873813 0.28790951454019 2.4044292640356293 87.0 96.0 119.0
-2.584724218873813 0.05257951454018994 0.022629264035630925 43.0 36.0 23.0
0.3296157811261873 0.039159514540189955 -2.49147073596437 95.0 63.0 52.0
-0.8099342188738126 0.59200951454019 -1.3158707359643707 109.0 71.0 48.0
2.617945781126187 -0.04275048545980997 0.5251292640356304 56.0 44.0 37.0
-2.0567242188738133 0.29042951454019006 -1.0410707359643698 106.0 63.0 41.0
-2.066634218873813 0.30523951454019005 -1.2657707359643702 154.0 105.0 72.0
1.387055781126187 0.06008951454018985 -1.7827707359643696 61.0 39.0 26.0
0.9112357811261869 -0.32248948545981004 -0.8037707359643704 73.0 44.0 33.0
2.280155781126187 -0.5324024854598101 0.8562292640356297 51.0 28.0 23.0
-1.862384218873813 0.28593951454018995 -2.0957707359643702 75.0 38.0 17.0
0.10674578112618693 -1.80622848545981 -1.1371707359643697 126.0 123.0 118.0
-0.16752421887381264 0.9885095145401901 1.4149292640356297 107.0 87.0 68.0
-2.5504142188738133 -0.11121848545981006 0.2771292640356293 147.0 113.0 104.0
-0.10503421887381315 -0.91196548545981 1.16322926403563 147.0 101.0 77.0
1.978505781126187 0.7342495145401899 1.16782926403563 51.0 33.0 32.0
0.12440578112618716 -0.60524948545981 0.83092926403563 55.0 35.0 26.0
1.1439357811261872 0.22990951454018993 -2.0100707359643692 67.0 41.0 19.0
-0.11808421887381293 1.38050951454019 0.8335292640356293 84.0 100.0 120.0
-0.8272342188738131 -0.42208848545981004 -0.632870735964369 67.0 37.0 29.0
-1.1543442188738133 0.2630895145401899 -1.3357707359643705 73.0 39.0 30.0
-1.8994442188738132 0.1907595145401899 -2.3079707359643695 48.0 43.0 30.0
-0.3589242188738133 1.1818595145401898 0.5301292640356294 73.0 91.0 110.0
-0.6452642188738134 -0.12400448545981002 -2.1517707359643694 34.0 23.0 22.0
2.827715781126187 0.22009951454019006 0.6562292640356304 138.0 82.0 62.0
0.22841578112618688 -0.5510014854598101 0.9111292640356297 86.0 65.0 60.0
-0.6194942188738128 0.6536395145401899 -0.8106707359643703 220.0 202.0 193.0
-0.17176421887381288 -0.5993514854598101 1.0415292640356295 49.0 12.0 6.0
-1.7637342188738128 0.29837951454018996 -1.8670707359643703 88.0 55.0 43.0
1.8329357811261868 0.9375395145401901 0.36632926403562927 50.0 25.0 11.0
-0.3740542188738134 -0.74995848545981 -0.6935707359643697 38.0 28.0 23.0
0.8781257811261867 1.19844951454019 1.2988292640356303 102.0 75.0 79.0
1.230795781126187 1.0825395145401902 1.00702926403563 155.0 103.0 85.0
-1.4136142188738132 0.15824951454018987 -1.9097707359643703 25.0 22.0 17.0
-1.0693942188738133 -0.07627048545980997 0.41752926403563073 95.0 63.0 46.0
0.6818757811261866 0.2179395145401899 0.7267292640356295 81.0 48.0 21.0
1.575095781126187 1.02592951454019 -0.5595707359643693 80.0 47.0 19.0
0.859605781126187 -0.56671248545981 0.6555292640356303 179.0 124.0 81.0
-1.999934218873813 0.10507951454018993 1.6083292640356301 82.0 82.0 107.0
0.029375781126186773 -0.00860048545981007 1.1436292640356296 55.0 32.0 18.0
2.727915781126187 -0.1716544854598101 0.9917292640356301 118.0 74.0 51.0
1.6991157811261872 -0.20070948545981004 1.30272926403563 208.0 168.0 154.0
0.051685781126186825 -0.4876324854598101 0.24972926403562923 87.0 71.0 27.0
1.4224757811261872 -0.19139648545981003 0.42412926403562956 144.0 87.0 67.0
-0.6877342188738131 1.1010595145401898 -1.4860707359643701 191.0 146.0 129.0
-2.249084218873813 0.10044951454019002 2.175929264035629 98.0 81.0 93.0
0.5485357811261871 -0.10329648545981007 -1.05547073596437 124.0 70.0 32.0
2.739795781126187 -0.1766774854598101 1.0145292640356303 107.0 71.0 56.0
1.5875357811261872 -1.04893548545981 0.8168292640356309 67.0 40.0 31.0
1.489215781126187 -0.36117148545981004 1.3498292640356304 133.0 98.0 80.0
-0.15336421887381313 -1.3724904854598101 -0.8899707359643703 118.0 94.0 76.0
0.955385781126187 0.64890951454019 0.14152926403563093 43.0 33.0 24.0
-1.985714218873813 -0.54647448545981 1.1820292640356307 121.0 88.0 81.0
-1.2850142188738127 -0.38042248545981006 -1.15377073596437 93.0 56.0 47.0
-2.3588042188738134 0.5149495145401899 1.6035292640356307 79.0 79.0 89.0
0.7071357811261869 -0.57708348545981 0.17852926403562996 48.0 23.0 10.0
-0.1792842188738133 0.9622295145401898 1.6008292640356299 142.0 107.0 107.0
1.0394157811261868 -0.27269048545981 -1.112270735964369 148.0 113.0 56.0
-0.23050421887381312 -0.36511448545981007 -0.7620707359643699 67.0 62.0 56.0
-0.570434218873813 -0.9237544854598101 0.9454292640356297 66.0 37.0 26.0
-1.3183042188738128 1.2503995145401898 0.34662926403563077 82.0 41.0 21.0
0.3500657811261867 -0.4292014854598101 0.9560292640356298 62.0 26.0 13.0
2.123375781126187 -0.6412564854598101 1.0181292640356308 76.0 35.0 7.0
0.345905781126187 0.7851895145401899 1.0498292640356297 91.0 80.0 81.0
-2.970954218873813 0.76716951454019 0.3496292640356309 59.0 51.0 60.0
1.669105781126187 0.85769951454019 1.226129264035631 39.0 16.0 0.0
-0.04719421887381259 -0.50207448545981 -1.1763707359643707 96.0 78.0 66.0
-0.15892421887381314 -1.60407248545981 -1.0799707359643698 40.0 28.0 19.0
-0.643914218873813 -0.53202648545981 -0.5348707359643701 50.0 41.0 42.0
1.7221557811261872 0.5087395145401898 0.4823292640356307 128.0 79.0 51.0
-1.4952042188738126 -0.3738674854598101 -1.3627707359643697 110.0 67.0 48.0
0.17723578112618732 0.32739951454019 0.11532926403562982 46.0 38.0 25.0
-2.2758042188738132 0.18455951454018993 -1.4439707359643705 84.0 53.0 39.0
1.404425781126187 1.9564495145401901 0.16502926403562945 48.0 41.0 31.0
-0.3466942188738127 -0.57596448545981 -1.21787073596437 82.0 65.0 38.0
0.5754057811261868 -0.29820848545981005 -0.029370735964370454 92.0 52.0 40.0
-0.8000942188738129 0.13903951454018992 -1.8684707359643706 93.0 83.0 54.0
-2.167584218873813 0.28351951454018987 2.1264292640356306 52.0 41.0 54.0
-0.2138942188738131 -1.55925148545981 -0.9192707359643695 80.0 62.0 48.0
0.09649578112618684 -1.80242448545981 -1.13627073596437 192.0 185.0 139.0
1.7410657811261872 -0.60069248545981 -0.29267073596436965 55.0 44.0 41.0
0.6962257811261869 -0.6651904854598101 -0.14827073596437046 63.0 41.0 26.0
1.400425781126187 -0.52477948545981 0.8470292640356298 62.0 41.0 8.0
1.158555781126187 1.1294595145401898 1.0301292640356294 103.0 62.0 53.0
-0.2959842188738131 -0.81752248545981 0.7622292640356303 49.0 34.0 27.0
-0.5474942188738128 -0.47391648545981 -0.5081707359643701 68.0 53.0 50.0
1.5483657811261868 -0.50448748545981 1.1978292640356294 112.0 65.0 44.0
-2.949724218873813 -0.034380485459809984 -0.2638707359643693 56.0 51.0 35.0
-1.0155542188738131 -0.23121748545981002 0.033729264035629924 62.0 46.0 39.0
-1.4159042188738127 -0.4616724854598101 -0.9591707359643706 103.0 67.0 58.0
-0.2583242188738133 0.3561895145401899 0.05902926403562958 35.0 31.0 28.0
1.185305781126187 1.1596995145401898 0.5290292640356302 135.0 118.0 118.0
-0.4911042188738133 0.9898995145401899 1.1378292640356307 156.0 115.0 98.0
0.36146578112618677 -1.49229648545981 -1.0688707359643708 38.0 34.0 35.0
1.176375781126187 -0.45062548545981007 -0.26737073596437 71.0 51.0 16.0
-1.8419742188738129 0.1301895145401899 1.6986292640356293 111.0 79.0 46.0
-1.4303142188738134 -0.38862348545981007 -1.2911707359643696 97.0 79.0 76.0
0.6685457811261868 -0.3587714854598101 0.008529264035630035 148.0 92.0 64.0
-0.9686342188738131 1.7144595145401897 -1.4581707359643694 151.0 147.0 133.0
-0.474454218873813 -0.99125258545981 -0.7001707359643703 141.0 98.0 92.0
-0.7329442188738131 -0.19641248545981005 -2.0232707359643705 29.0 19.0 17.0
0.13098578112618675 0.11916951454018987 1.15102926403563 51.0 52.0 44.0
-0.27893421887381287 0.9457095145401899 0.17942926403562964 148.0 101.0 85.0
-0.3032542188738132 -1.0949594854598101 -0.8344707359643699 65.0 63.0 50.0
-2.568374218873813 0.48900951454019004 -1.32987073596437 65.0 38.0 33.0
-0.6028742188738132 0.061729514540189934 -0.7131707359643702 37.0 32.0 33.0
0.7664057811261866 1.3342995145401901 -0.3406707359643697 123.0 94.0 81.0
-1.5482242188738127 1.5398495145401898 0.8174292640356295 111.0 115.0 126.0
0.27312578112618713 -0.7039884854598101 0.8864292640356304 88.0 66.0 15.0
-0.636734218873813 -0.6047604854598101 -0.4178707359643692 135.0 121.0 112.0
0.09483578112618662 0.33197951454019003 0.2063292640356309 254.0 249.0 241.0
0.18306578112618688 -2.21774048545981 -1.3917707359643696 45.0 39.0 33.0
2.280075781126187 -0.19930648545981 0.9260292640356305 58.0 39.0 31.0
-0.22407421887381318 -0.8536054854598101 0.9898292640356292 56.0 33.0 8.0
-0.6066242188738133 0.03773951454018998 -0.7388707359643707 49.0 37.0 37.0
-0.031064218873813054 -1.5833914854598101 -0.9710707359643695 131.0 115.0 96.0
-2.736414218873813 0.4165595145401899 2.0568292640356294 98.0 116.0 140.0
0.47503578112618694 0.07452951454018986 0.7648292640356296 170.0 122.0 86.0
0.48774578112618716 -2.43234048545981 -1.404970735964369 230.0 216.0 196.0
-0.7214142188738126 -0.26168448545981005 -1.7874707359643693 35.0 22.0 20.0
1.0952657811261872 0.17708951454018984 -1.8813707359643708 52.0 35.0 19.0
-1.463404218873813 -0.11446848545981003 0.2047292640356293 143.0 134.0 122.0
-0.9441542188738126 0.3009495145401899 0.8342292640356295 147.0 111.0 99.0
-1.8634442188738127 0.06626951454018992 1.7663292640356314 131.0 87.0 69.0
-0.20458421887381295 -0.38622948545981006 -1.5130707359643694 77.0 50.0 28.0
-0.24942421887381272 -0.3422354854598101 -1.5433707359643698 112.0 73.0 36.0
0.22515578112618684 0.032519514540189975 -1.48767073596437 88.0 38.0 28.0
1.814985781126187 -0.5472514854598101 0.8605292640356303 152.0 86.0 43.0
0.21203578112618704 0.3231795145401899 0.20812926403563026 90.0 61.0 25.0
-0.1991242188738127 -0.10890848545981002 -1.4566707359643694 53.0 46.0 39.0
-0.08421421887381264 -1.4472004854598102 -1.0045707359643696 91.0 87.0 56.0
1.791285781126187 0.79180951454019 1.2771292640356293 172.0 133.0 116.0
1.3935957811261872 1.14960951454019 0.8251292640356294 113.0 80.0 60.0
2.118145781126187 0.8525595145401899 1.0922292640356304 78.0 35.0 26.0
1.456685781126187 0.20996951454018986 -1.2125707359643698 80.0 55.0 22.0
0.5622657811261869 -0.05806048545981013 -0.42627073596436915 45.0 21.0 9.0
1.9612657811261869 0.68218951454019 -0.20427073596436962 48.0 32.0 23.0
