3.379295810971758 1.034696211181398 1.3212106379495427 163.0 152.0 125.0
0.8672508109717578 2.1587962111813983 -0.522169362050457 126.0 155.0 145.0
3.140745810971758 1.1575862111813982 0.6995106379495439 149.0 125.0 85.0
-0.5713041890282422 0.21059921118139802 0.8622106379495431 83.0 69.0 49.0
1.5214688109717578 -0.15446078881860192 1.520010637949543 82.0 87.0 60.0
-1.626724189028242 0.4744542111813981 -3.4390393620504565 211.0 125.0 118.0
-0.8098541890282422 0.5648162111813981 1.252510637949543 100.0 90.0 72.0
0.36845581097175784 -3.064103788818602 -1.3751793620504564 99.0 76.0 58.0
1.1817088109717577 -0.808678788818602 1.765810637949544 138.0 133.0 98.0
-0.20263418902824215 -0.3351837888186019 1.6646106379495436 117.0 75.0 69.0
-0.6110641890282422 1.7575862111813982 -0.5619293620504564 180.0 195.0 201.0
-3.6898541890282424 -0.4358587888186019 1.3738106379495427 54.0 27.0 25.0
-0.05082418902824215 -0.46891877881860194 1.7260106379495443 123.0 57.0 64.0
1.0407448109717579 2.241926211181398 -0.5077093620504574 161.0 82.0 85.0
1.0805038109717577 -0.03879878881860194 3.6814106379495435 124.0 116.0 52.0
0.18773281097175787 -0.559280788818602 -2.325779362050456 92.0 84.0 60.0
0.8383358109717578 -1.614703788818602 -1.7293993620504562 19.0 18.0 12.0
2.728695810971758 1.190116211181398 1.1369106379495442 164.0 135.0 124.0
-0.25684418902824224 1.739516211181398 -1.331809362050457 114.0 114.0 79.0
-0.5821441890282422 -2.764103788818602 -0.7787993620504565 39.0 43.0 39.0
0.3576128109717578 2.6214462111813983 -1.2052993620504573 215.0 152.0 151.0
0.8636368109717578 2.1551762111813977 -0.934219362050456 189.0 187.0 198.0
-2.689374189028242 -0.6062687888186019 2.1525106379495433 118.0 79.0 66.0
-0.05805418902824222 -2.995423788818602 -1.096869362050457 113.0 87.0 69.0
-2.678534189028242 -0.6062687888186019 2.073010637949544 127.0 110.0 51.0
0.49496181097175784 0.1672252111813981 -0.3305993620504566 174.0 158.0 131.0
0.25279281097175776 -0.48699178881860195 -2.5281893620504565 178.0 131.0 135.0
-3.1845541890282423 0.004575211181398087 1.8995106379495432 191.0 116.0 117.0
1.1744798109717578 0.8467462111813981 0.8947106379495438 167.0 112.0 111.0
0.47688981097175787 -2.9195237888186023 -1.3932493620504562 16.0 12.0 11.0
0.6178538109717577 -2.5544637888186017 -1.3860193620504564 169.0 132.0 104.0
0.4226728109717578 -0.0026537888186019543 -1.5739793620504567 71.0 70.0 56.0
-3.8344241890282422 -0.00935278881860191 1.3918106379495434 137.0 123.0 77.0
0.6214678109717577 0.6732462111813982 -0.5510793620504568 48.0 41.0 29.0
-1.5399741890282421 0.5178282111813981 -3.7318093620504564 190.0 119.0 109.0
-2.497814189028242 0.32264721118139805 0.6959106379495434 32.0 24.0 17.0
-0.14841418902824222 1.9383062111813982 -1.693249362050457 157.0 109.0 103.0
1.5756848109717578 2.140716211181398 -1.4510893620504568 228.0 222.0 216.0
3.375685810971758 1.356386211181398 0.6670106379495433 187.0 118.0 120.0
-3.4621441890282423 -0.24067878881860194 1.312310637949544 62.0 42.0 28.0
0.6142388109717578 0.966026211181398 0.14291063794954262 74.0 40.0 42.0
0.24194981097175783 -0.5267508888186019 -2.5534993620504567 105.0 82.0 53.0
0.7154438109717578 2.3286762111813983 -1.2450593620504566 158.0 99.0 93.0
-3.599494189028243 -0.5081487888186019 1.3665106379495437 64.0 56.0 43.0
-2.132754189028242 -0.4074736888186019 2.3079106379495435 128.0 111.0 90.0
-2.107444189028242 0.32264721118139805 -0.3450593620504563 188.0 140.0 141.0
0.24194981097175783 2.4479462111813977 -1.6390393620504558 251.0 233.0 236.0
-1.4713041890282421 0.6587962111813981 -3.6884293620504565 182.0 137.0 112.0
0.48050381097175776 -3.2122937888186023 -1.2125293620504571 66.0 68.0 65.0
0.5202628109717579 1.143126211181398 0.103110637949543 156.0 107.0 112.0
3.0973758109717577 0.900956211181398 1.0537106379495427 84.0 84.0 84.0
-0.25323418902824213 -0.20144878881860195 -2.445059362050457 161.0 133.0 115.0
0.02508581097175777 0.3298762111813981 -3.019759362050457 184.0 117.0 119.0
-2.2050341890282423 -0.15084678881860192 -1.910119362050457 220.0 152.0 153.0
0.8347208109717579 -1.520723788818602 -1.7546993620504558 54.0 42.0 38.0
3.111835810971758 0.5142142111813981 0.901910637949543 148.0 69.0 60.0
-0.5134741890282422 0.25758721118139805 0.9453106379495431 221.0 184.0 170.0
0.06483581097175772 1.988916211181398 -1.331809362050457 174.0 185.0 198.0
0.9106248109717578 -0.515906788818602 3.244110637949543 120.0 87.0 90.0
-0.7628741890282422 -0.18699178881860196 -2.661929362050457 127.0 105.0 69.0
-1.6556441890282423 -1.585783788818602 0.8947106379495438 60.0 49.0 43.0
-0.5026241890282421 0.2467442111813981 0.8441106379495427 71.0 58.0 34.0
3.093755810971758 0.34433421118139806 1.2417106379495433 104.0 62.0 54.0
0.6106248109717578 -2.7424137888186015 -1.284819362050456 30.0 27.0 19.0
-4.258054189028242 -0.43277488881860193 -0.9848193620504571 49.0 46.0 28.0
-1.052024189028242 1.819036211181398 -1.7077093620504566 133.0 89.0 99.0
-2.631544189028242 -0.6315697888186019 2.0405106379495432 65.0 48.0 46.0
1.1708658109717578 -0.1291597888186019 -1.9968693620504556 145.0 134.0 101.0
0.7335158109717579 2.480476211181398 -0.8908393620504569 187.0 133.0 137.0
2.392555810971758 -0.46891877881860194 1.1658106379495443 122.0 103.0 69.0
2.7576158109717577 1.2696362111813981 1.1441106379495434 131.0 96.0 97.0
1.3949618109717579 -0.41831668881860196 1.317610637949544 90.0 72.0 39.0
3.025085810971758 0.506985211181398 0.8694106379495441 97.0 94.0 78.0
-2.490584189028242 0.7672262111813981 0.5802106379495431 80.0 63.0 20.0
0.35038381097175786 -0.8556667888186019 -2.014939362050457 43.0 34.0 23.0
-0.039974189028242124 1.226266211181398 3.558510637949544 228.0 245.0 249.0
-1.099014189028242 0.9298762111813981 -2.3004793620504564 71.0 64.0 56.0
0.8383358109717578 -1.611083788818602 -1.5342193620504574 192.0 175.0 167.0
-0.07973418902824214 1.761206211181398 -1.0932493620504573 74.0 48.0 42.0
1.7780948109717578 0.940716211181398 -0.045089362050456216 64.0 56.0 38.0
0.8383358109717578 -2.717113788818602 -0.8402393620504558 44.0 35.0 28.0
-2.4761241890282424 -0.42554588881860195 1.154910637949543 47.0 35.0 23.0
-2.6098541890282423 -1.314702788818602 3.6851106379495437 106.0 84.0 84.0
2.5443558109717577 -0.7219317888186019 1.1477106379495439 83.0 64.0 30.0
0.7262868109717577 0.272045211181398 -2.0619293620504564 87.0 38.0 35.0
-1.366484189028242 0.568426211181398 -2.726989362050457 125.0 106.0 81.0
-4.217564189028242 -0.641883788818602 1.3846106379495442 81.0 54.0 51.0
1.0660468109717578 -0.530364688818602 4.194710637949543 192.0 169.0 79.0
0.6648418109717578 -1.2677147888186018 -1.9534993620504562 57.0 40.0 39.0
-0.17009418902824214 -0.06409978881860195 0.11761063794954296 178.0 152.0 128.0
-0.3363641890282423 2.429876211181398 -0.5402393620504569 115.0 120.0 116.0
3.0756858109717577 0.48529821118139804 0.8730106379495428 238.0 198.0 189.0
-1.0592541890282423 0.6587962111813981 -2.2137393620504566 40.0 40.0 35.0
3.0612258109717576 0.922646211181398 1.154910637949543 93.0 43.0 42.0
0.6070098109717578 0.5358962111813981 -0.3414493620504562 57.0 42.0 31.0
0.9576128109717579 -0.6243407888186019 1.3140106379495435 163.0 111.0 108.0
-3.0146741890282422 -0.812292788818602 2.5610106379495434 78.0 56.0 43.0
-1.0556441890282422 0.17445421118139803 -2.7595193620504563 250.0 206.0 212.0
0.5274918109717578 -1.2568717888186018 1.5923106379495433 42.0 30.0 23.0
-2.103834189028242 -0.6279557888186019 0.826010637949544 214.0 197.0 200.0
1.3046008109717577 1.323856211181398 0.9055106379495435 162.0 161.0 150.0
-0.4194941890282422 -0.2954247888186019 -2.8571093620504566 61.0 29.0 20.0
0.16966081097175778 -0.6713287888186019 -2.0619293620504564 104.0 91.0 52.0
-1.323114189028242 0.792526211181398 -3.3305993620504566 117.0 111.0 92.0
-1.0152441890282422 -0.543145788818602 1.6532106379495435 145.0 120.0 104.0
1.1455648109717578 2.0286762111813976 -1.7619293620504557 217.0 170.0 165.0
0.6612268109717578 2.592526211181398 -1.0860193620504557 184.0 184.0 166.0
0.014235810971757745 0.3732502111813981 0.5802106379495431 52.0 39.0 27.0
-0.7267241890282421 0.040719211181398096 0.18261063794954424 108.0 105.0 98.0
1.3226728109717578 0.13831021118139808 0.056110637949544184 41.0 36.0 26.0
1.3226728109717578 -0.17253378881860193 0.3706106379495431 56.0 41.0 30.0
1.087732810971758 -1.7014537888186019 0.06341063794954316 51.0 41.0 32.0
3.2347258109717574 0.8792762111813981 1.3465106379495442 178.0 143.0 130.0
-1.8146741890282423 -0.5339798888186019 2.542910637949543 141.0 131.0 121.0
0.8853238109717578 -1.542413788818602 0.4826106379495432 39.0 36.0 29.0
0.8817088109717578 1.1575862111813982 0.0923106379495433 144.0 123.0 104.0
-0.14841418902824222 0.3081892111813981 1.5634106379495432 98.0 73.0 49.0
-2.5520241890282422 -0.23759378881860194 -1.9679493620504562 197.0 127.0 121.0
-0.4845541890282421 1.9238562111813982 -1.910119362050457 72.0 72.0 60.0
0.7046008109717579 -2.644823788818602 -0.7751793620504568 120.0 87.0 69.0
0.1732748109717578 2.4262662111813977 -1.3643393620504565 82.0 79.0 71.0
-1.1134741890282422 1.370836211181398 -1.443859362050457 161.0 129.0 124.0
-0.11588418902824227 2.010596211181398 -1.5920493620504566 115.0 135.0 111.0
-2.617084189028242 0.5467462111813981 1.050110637949544 54.0 27.0 23.0
0.3359258109717578 -0.4219307888186019 -0.10288936205045651 44.0 38.0 27.0
0.9792998109717578 -0.03518378881860196 3.9344106379495436 165.0 149.0 133.0
0.22749181097175786 -1.097834788818602 -2.141449362050457 79.0 68.0 56.0
-1.5688941890282424 1.316626211181398 -3.594459362050457 149.0 58.0 69.0
-0.00022418902824217213 1.855176211181398 -0.4281893620504569 97.0 74.0 68.0
2.6564058109717577 0.781686211181398 0.6272106379495437 72.0 52.0 49.0
-0.05805418902824222 1.8949362111813979 -1.910119362050457 134.0 105.0 103.0
-2.454434189028242 -1.003858788818602 3.3959106379495427 124.0 82.0 75.0
2.323875810971758 -0.682172788818602 1.0826106379495428 191.0 132.0 123.0
-0.18817418902824223 0.40216521118139803 -3.3450593620504563 230.0 170.0 150.0
-0.06166418902824211 1.9130062111813981 -1.982409362050456 126.0 121.0 60.0
1.6949628109717578 0.680476211181398 1.5634106379495432 107.0 104.0 86.0
1.5503838109717578 2.1624062111813984 -1.4113293620504557 253.0 211.0 212.0
-1.2688941890282421 -0.7110877888186019 2.134410637949543 128.0 106.0 90.0
0.5419498109717578 0.19252721118139804 -0.3161493620504565 48.0 38.0 28.0
-3.1448041890282425 -0.573738788818602 3.8658106379495436 149.0 138.0 97.0
-0.47371418902824214 1.8154162111813983 -0.9595193620504556 231.0 237.0 244.0
-1.9520241890282424 -0.3894008888186019 2.3838106379495443 137.0 122.0 110.0
1.232311810971758 -2.601453788818602 -0.41011936205045707 102.0 106.0 92.0
-1.095404189028242 1.052766211181398 -2.730599362050457 147.0 74.0 67.0
0.5527928109717578 1.829876211181398 -0.822169362050456 95.0 85.0 75.0
-1.3158841890282422 -1.979763788818602 0.16101063794954307 46.0 31.0 27.0
-0.18817418902824223 2.259996211181398 -1.0028893620504569 146.0 121.0 102.0
1.8323118109717578 0.770836211181398 0.8369106379495435 146.0 110.0 101.0
0.5058048109717578 -0.0966297888186019 1.1622106379495438 84.0 62.0 37.0
1.2756848109717578 -0.559280788818602 3.356110637949543 107.0 70.0 73.0
-0.5496141890282422 -0.027954788818601917 3.1212106379495435 108.0 102.0 76.0
-1.547204189028242 0.40216521118139803 -3.0522893620504563 151.0 80.0 73.0
0.1949618109717578 1.772046211181398 -0.6016893620504558 70.0 53.0 41.0
-1.7243141890282423 -0.0966297888186019 3.1104106379495438 110.0 62.0 60.0
-2.9387741890282424 0.40578021118139807 0.8658106379495436 241.0 185.0 185.0
-3.766484189028242 -1.0147027888186018 4.183810637949543 133.0 110.0 70.0
-1.1200641890282423 -0.5539887888186019 1.6676106379495437 119.0 103.0 90.0
-1.301424189028242 1.345536211181398 -1.3028893620504558 197.0 124.0 124.0
0.0684558109717579 1.793736211181398 -1.0354193620504564 166.0 136.0 108.0
1.2214678109717578 -0.017111788818601925 0.8694106379495441 128.0 102.0 76.0
-1.2833541890282423 -2.388193788818602 -0.39204936205045726 73.0 80.0 60.0
0.7046008109717579 2.3250562111813977 -1.2522893620504565 154.0 98.0 64.0
0.4696608109717578 1.482886211181398 -0.9197593620504563 71.0 63.0 58.0
2.0383358109717578 0.810596211181398 0.07421063794954286 169.0 178.0 155.0
-0.9110641890282423 1.092526211181398 -2.2281893620504567 136.0 96.0 83.0
-2.049614189028242 0.770836211181398 -0.09208936205045681 167.0 142.0 120.0
1.4058058109717577 -0.2881957888186019 2.467010637949544 69.0 78.0 48.0
3.2311058109717576 1.233486211181398 0.616410637949544 176.0 130.0 129.0
0.5202628109717579 -1.2026547888186019 1.6067106379495435 107.0 72.0 68.0
1.235925810971758 1.331076211181398 0.9164106379495429 140.0 112.0 86.0
-1.0881741890282421 -0.674943788818602 2.864610637949543 53.0 54.0 34.0
0.6178538109717577 0.3515632111813981 -2.1486793620504567 79.0 51.0 45.0
0.5780948109717579 -1.495423788818602 0.9778106379495437 64.0 60.0 47.0
-0.6291341890282423 -2.7243437888186017 -0.6920493620504562 45.0 36.0 29.0
-3.2315441890282424 0.7274662111813981 0.9344106379495436 154.0 112.0 93.0
-0.8207041890282423 -2.662893788818602 -0.6161493620504572 110.0 96.0 82.0
1.358817810971758 -0.9568707888186019 0.6851106379495437 86.0 71.0 59.0
-1.019494189028242 0.7852962111813981 -2.2824093620504566 175.0 125.0 121.0
-2.270104189028242 -0.19422078881860194 1.010410637949544 113.0 105.0 75.0
1.232311810971758 -0.7978347888186019 1.527210637949544 90.0 66.0 50.0
-1.4604641890282422 1.3816862111813981 -1.5342193620504574 197.0 155.0 150.0
0.09375581097175778 2.4949362111813977 -0.7643393620504568 168.0 175.0 163.0
-1.3194941890282423 1.356386211181398 -3.5004793620504566 121.0 87.0 76.0
3.6286958109717578 1.388916211181398 0.4357106379495441 111.0 89.0 78.0
-0.06889418902824218 2.523856211181398 -0.6378293620504571 147.0 162.0 166.0
-2.9857641890282425 -0.841208788818602 3.670610637949544 81.0 89.0 66.0
-1.120704189028242 1.1178262111813981 -2.8281893620504563 207.0 145.0 144.0
0.22387781097175785 -3.132773788818602 -1.3065093620504573 121.0 90.0 70.0
0.8817088109717578 -1.6183137888186019 -1.631809362050456 21.0 21.0 19.0
1.2720708109717578 -2.174943788818602 -0.2691593620504573 39.0 31.0 27.0
1.409419810971758 1.3383062111813981 -0.348679362050456 181.0 207.0 194.0
-2.631544189028242 0.568426211181398 1.0393106379495443 160.0 153.0 142.0
1.1058057909717578 2.017826211181398 -1.635419362050456 135.0 139.0 144.0
-1.5002241890282424 1.186506211181398 -0.8799993620504569 116.0 106.0 69.0
1.5359258109717577 0.0009602111813980518 4.487510637949544 147.0 170.0 79.0
2.981705810971758 0.980476211181398 1.0573106379495432 158.0 162.0 145.0
-0.45202418902824215 2.303376211181398 -0.4318093620504566 167.0 152.0 143.0
1.008214810971758 0.15276821118139805 -1.6607193620504557 75.0 50.0 25.0
-0.961664189028242 1.8804762111813982 -1.6571093620504573 103.0 109.0 46.0
1.5937578109717578 0.2901172111813981 4.183810637949543 253.0 207.0 211.0
1.004600810971758 2.166026211181398 -0.14626936205045737 150.0 77.0 77.0
-2.085764189028242 -0.917111788818602 1.0176106379495433 89.0 73.0 48.0
1.1600228109717579 2.2816862111813982 -1.1257793620504568 200.0 134.0 117.0
-1.594194189028242 0.2865032111813981 -2.7522893620504565 58.0 46.0 38.0
0.49134781097175784 -2.767713788818602 -1.3498793620504568 170.0 161.0 143.0
-0.3652841890282421 -0.03518378881860196 3.074210637949543 56.0 50.0 29.0
0.13713081097175783 0.4130092111813981 3.197110637949544 201.0 215.0 167.0
0.4479738109717578 -1.2677147888186018 1.476610637949543 89.0 89.0 79.0
1.7889388109717577 0.7274662111813981 1.6284106379495427 108.0 67.0 71.0
0.4696608109717578 -3.1436137888186018 -0.9486793620504557 186.0 163.0 106.0
1.3660468109717578 -2.030363788818602 -0.14264936205045586 85.0 82.0 75.0
0.36484181097175783 0.6262662111813981 0.26221063794954347 215.0 206.0 194.0
-0.9146741890282424 1.1792762111813981 3.562210637949544 153.0 161.0 148.0
0.26363681097175784 2.3792762111813976 -0.8040993620504562 166.0 124.0 123.0
0.8672508109717578 -1.7339837888186018 -1.5920493620504566 14.0 11.0 9.0
1.3082148109717577 -2.3303637888186017 -0.32336936205045674 18.0 16.0 13.0
-0.22793418902824225 1.786506211181398 -0.18963936205045684 100.0 100.0 91.0
-1.3411841890282423 -1.0869917888186018 3.656110637949544 143.0 93.0 88.0
-0.4628741890282422 1.7575862111813982 -1.6571093620504573 236.0 197.0 201.0
-1.6411841890282421 0.2865032111813981 -2.766749362050456 85.0 77.0 42.0
-1.594194189028242 -1.6183137888186019 0.6128106379495435 170.0 141.0 109.0
-1.717084189028242 1.432286211181398 0.22241063794954385 127.0 134.0 102.0
3.032315810971758 0.994936211181398 1.1441106379495434 115.0 111.0 88.0
-1.276124189028242 -0.3894008888186019 2.116410637949544 116.0 54.0 43.0
-0.4809441890282422 0.5756562111813981 2.452510637949544 138.0 80.0 68.0
-0.025524189028242272 2.5636162111813983 -1.2558993620504566 230.0 191.0 189.0
2.081709810971758 1.190116211181398 1.5164106379495443 146.0 165.0 139.0
3.241955810971758 0.853976211181398 1.1477106379495439 97.0 49.0 34.0
0.42990181097175784 2.1985562111813977 -0.7679493620504569 184.0 188.0 190.0
0.20219081097175784 0.568426211181398 3.4284106379495434 63.0 58.0 51.0
1.6190588109717579 -0.0677137888186019 2.221210637949543 110.0 104.0 52.0
0.5600218109717578 0.698546211181398 -0.5619293620504564 45.0 32.0 25.0
0.5527928109717578 0.731086211181398 0.06701063794954365 79.0 52.0 43.0
3.0539958109717578 1.0166262111813982 1.1296106379495434 163.0 160.0 137.0
-0.1375641890282422 1.8154162111813983 -2.4016893620504565 130.0 123.0 94.0
0.15881681097175782 1.8262662111813979 -1.2992793620504557 69.0 57.0 52.0
1.4383358109717579 -0.08940078881860192 1.6935106379495437 84.0 67.0 53.0
1.3082148109717577 0.8575862111813981 0.7754106379495429 244.0 169.0 170.0
0.12628681097175787 0.6732462111813982 1.2634106379495442 208.0 149.0 149.0
-1.2472041890282421 1.222646211181398 1.2381106379495428 131.0 115.0 89.0
-0.03636418902824223 1.7142162111813979 -2.134219362050456 95.0 82.0 75.0
0.5238778109717578 -0.700244788818602 1.6971106379495442 97.0 96.0 83.0
1.687733810971758 0.34794821118139807 4.194710637949543 224.0 203.0 185.0
-1.572504189028242 0.6949362111813981 -3.652289362050457 177.0 114.0 123.0
0.3612268109717578 -0.2918107888186019 -0.14626936205045737 49.0 38.0 30.0
2.3021958109717575 -0.5267508888186019 1.1116106379495427 107.0 103.0 88.0
0.4841188109717578 0.5322862111813981 -2.1016893620504558 181.0 133.0 135.0
-1.4893741890282424 1.193736211181398 -3.511329362050456 173.0 121.0 104.0
-0.2893741890282422 -0.08217178881860193 3.0236106379495435 64.0 52.0 45.0
-0.41226418902824213 -0.32072678881860195 1.7116106379495442 91.0 81.0 40.0
-1.637574189028242 0.5358962111813981 -3.8366293620504566 223.0 166.0 168.0
-1.8905841890282422 0.3768642111813981 -3.0631293620504563 85.0 57.0 38.0
1.9299018109717578 0.7744562111813982 0.6887106379495442 69.0 47.0 36.0
3.1226758109717574 -0.8231357888186019 1.2453106379495438 97.0 95.0 83.0
3.144365810971758 -0.674943788818602 1.2923106379495444 145.0 100.0 88.0
0.30700981097175783 -3.6062737888186023 -1.407709362050456 78.0 90.0 84.0
-1.388174189028242 0.1636112111813981 -2.6763893620504566 68.0 57.0 64.0
1.358817810971758 2.4262662111813977 -1.2631293620504565 151.0 152.0 127.0
-1.695404189028242 0.47084021118139807 -3.2691593620504564 231.0 189.0 179.0
0.8311068109717579 2.4334962111813985 -0.9558993620504559 154.0 144.0 104.0
-0.9652841890282422 1.2660162111813982 3.728410637949544 91.0 104.0 56.0
-0.3978041890282422 1.674456211181398 -1.4185593620504573 154.0 172.0 198.0
0.8383358109717578 -1.611083788818602 -1.5414493620504572 165.0 147.0 140.0
-2.0207041890282422 -0.1906057888186019 -2.141449362050457 105.0 35.0 46.0
0.42990181097175784 -1.426750788818602 1.3646106379495428 110.0 123.0 116.0
-0.025524189028242272 1.9491562111813983 -1.5812093620504566 123.0 133.0 135.0
-1.5291341890282422 -0.21229278881860192 -2.1739793620504564 56.0 34.0 20.0
0.3431548109717578 -0.9749437888186019 2.636910637949544 65.0 60.0 37.0
0.37929881097175777 -0.43638888881860194 -0.11734936205045621 40.0 39.0 25.0
0.0033958109717577845 -0.4653047288186019 1.6320106379495432 123.0 96.0 96.0
-1.5074441890282422 0.5575862111813981 -2.6908393620504567 186.0 155.0 105.0
0.7479738109717577 -0.21952178881860193 3.547710637949544 105.0 86.0 69.0
-2.7688941890282424 -0.7074737888186019 2.286310637949544 155.0 100.0 100.0
-3.4303441890282427 -1.000244788818602 2.7634106379495442 72.0 63.0 41.0
0.7443598109717577 2.581686211181398 -0.9052993620504566 217.0 212.0 215.0
1.2250828109717578 -2.615903788818602 -0.5113293620504571 99.0 107.0 107.0
1.4744808109717578 -1.535183788818602 0.0019106379495443804 45.0 37.0 33.0
0.13713081097175783 0.38047921118139805 -2.990849362050456 215.0 184.0 180.0
0.8130338109717579 -1.499043788818602 -1.8414493620504562 38.0 34.0 30.0
-1.019494189028242 0.7997562111813981 -2.2426493620504564 73.0 48.0 47.0
0.8744798109717578 -1.542413788818602 0.36341063794954387 198.0 186.0 168.0
-0.0038341890282422852 0.2539722111813981 0.5658106379495429 57.0 41.0 20.0
1.0515888109717577 0.19975621118139808 -1.8558993620504562 68.0 74.0 33.0
-2.392994189028242 -1.0363897888186018 2.983810637949544 60.0 37.0 31.0
0.14435981097175776 -3.3713337888186024 -1.1836193620504574 182.0 146.0 127.0
-1.5688941890282424 0.2503582111813981 -2.737829362050457 158.0 135.0 109.0
1.684118810971758 -1.874943788818602 0.18991063794954322 129.0 83.0 61.0
0.21303381097175778 0.38409321118139805 0.8838106379495443 158.0 54.0 57.0
0.5564078109717578 -1.021931788818602 -1.9498793620504564 48.0 45.0 34.0
3.433515810971758 1.323856211181398 0.594710637949543 161.0 148.0 147.0
0.8889378109717578 2.400966211181398 -0.9197593620504563 235.0 211.0 218.0
-0.05082418902824215 1.851566211181398 0.06701063794954365 139.0 169.0 179.0
-0.10503418902824224 1.7322862111813981 -2.6113293620504567 176.0 133.0 125.0
3.256405810971758 1.190116211181398 0.8296106379495427 126.0 105.0 94.0
-1.1568441890282422 -2.6195237888186016 -0.655899362050457 43.0 33.0 26.0
0.22387781097175785 0.6551762111813981 3.4501106379495443 160.0 143.0 132.0
-3.1954041890282427 -0.0026537888186019543 1.8019106379495433 188.0 115.0 101.0
2.2479758109717576 0.7889162111813981 0.5441106379495437 212.0 194.0 182.0
-1.084554189028242 -2.586993788818602 -0.6486793620504567 54.0 38.0 32.0
0.14797381097175777 -0.4833766888186019 -2.2281893620504567 44.0 34.0 29.0
-0.6219041890282422 0.047948211181398026 3.280210637949544 128.0 118.0 74.0
-2.783354189028242 -0.6460277888186019 3.283810637949543 105.0 85.0 66.0
-3.6941941890282424 -0.935184788818602 2.817610637949544 206.0 133.0 119.0
0.8708658109717577 0.5865062111813981 0.9887106379495432 200.0 156.0 150.0
0.6286968109717579 -2.995423788818602 -1.0173493620504566 29.0 23.0 16.0
1.0154438109717578 -1.788193788818602 0.08501063794954433 39.0 29.0 22.0
1.1744798109717578 1.3780662111813982 0.9164106379495429 213.0 186.0 186.0
-1.1062441890282424 1.059996211181398 -2.8498793620504568 168.0 86.0 84.0
-0.15925418902824218 -0.07494278881860195 0.826010637949544 247.0 193.0 174.0
-0.05805418902824222 1.9166262111813979 -1.4402393620504572 82.0 42.0 35.0
0.7985768109717578 -1.495423788818602 0.6200106379495427 105.0 84.0 68.0
2.566045810971758 -0.7327747888186019 1.1622106379495438 124.0 107.0 80.0
0.49496181097175784 -3.111093788818602 -1.1402393620504565 29.0 21.0 18.0
-0.35805418902824226 1.7359062111813979 -1.3607193620504567 169.0 178.0 175.0
-1.4062441890282422 -0.1291597888186019 -2.264339362050457 211.0 176.0 155.0
-1.8797341890282422 0.38770721118139806 -0.2619293620504557 230.0 164.0 158.0
0.03231581097175784 -0.03518378881860196 -2.557109362050457 177.0 79.0 79.0
0.8238778109717578 0.08770721118139801 -2.040239362050457 55.0 46.0 25.0
-1.854434189028242 -0.4653047288186019 2.4706106379495427 96.0 74.0 65.0
0.5202628109717579 0.23590021118139803 -0.348679362050456 64.0 49.0 34.0
0.2817088109717578 -0.635184788818602 -2.0691593620504563 61.0 54.0 45.0
0.1949618109717578 -0.515906788818602 -2.1812093620504562 55.0 47.0 49.0
0.06122581097175783 1.9708462111813982 -1.3137393620504572 169.0 181.0 197.0
1.3841188109717577 -0.49783478881860194 4.715210637949543 155.0 131.0 77.0
0.7913478109717578 0.29373221118139803 -2.481209362050457 70.0 74.0 24.0
0.14074481097175784 0.6551762111813981 3.547710637949544 159.0 142.0 128.0
-0.8062441890282421 1.833486211181398 -0.17156936205045703 119.0 117.0 100.0
0.9070098109717578 1.172046211181398 0.14291063794954262 119.0 64.0 79.0
-0.9761241890282422 -0.743617788818602 2.781410637949543 67.0 71.0 36.0
0.5817088109717579 -2.897833788818602 -1.0426493620504562 43.0 34.0 27.0
0.3250818109717578 -3.6171137888186022 -1.396869362050456 60.0 57.0 54.0
-2.606244189028242 0.46722621118139807 0.7899106379495429 101.0 91.0 72.0
1.662431810971758 -0.700244788818602 1.6320106379495432 122.0 87.0 68.0
0.24556381097175783 0.629876211181398 0.3887106379495435 82.0 71.0 49.0
0.4479738109717578 0.06602121118139803 -0.25830936205045596 152.0 122.0 103.0
0.7262868109717577 2.2780662111813976 -1.1366293620504564 225.0 226.0 227.0
2.0094208109717577 1.313006211181398 1.0140106379495428 232.0 241.0 233.0
-2.7580541890282424 0.05517721118139807 -1.863129362050456 75.0 41.0 36.0
0.37929881097175777 -0.9857867888186019 2.416410637949543 181.0 165.0 144.0
1.8250828109717578 0.691326211181398 0.17181063794954277 136.0 131.0 112.0
0.45520281097175785 0.821446211181398 -2.896869362050457 181.0 154.0 84.0
1.333516810971758 0.04433421118139802 3.4610106379495438 157.0 95.0 61.0
-1.4279341890282422 1.356386211181398 -3.3920493620504564 162.0 71.0 72.0
-0.047204189028242194 -0.24843678881860193 0.24411063794954302 80.0 62.0 53.0
-0.24961418902824217 1.623856211181398 -1.4691593620504566 104.0 61.0 55.0
-2.284554189028242 -0.664099788818602 1.0176106379495433 106.0 91.0 74.0
-2.0676941890282423 -0.7978347888186019 0.9597106379495433 175.0 154.0 133.0
-0.5568441890282423 1.8479462111813982 -1.9534993620504562 195.0 149.0 151.0
0.4660458109717578 -3.389403788818602 -1.1836193620504574 101.0 91.0 73.0
-2.566484189028242 -0.23036478881860192 -1.5558993620504573 82.0 58.0 50.0
0.3431548109717578 1.627466211181398 -0.8980693620504567 69.0 52.0 40.0
-0.21708418902824222 -0.06409978881860195 -2.311329362050457 183.0 147.0 148.0
0.9106248109717578 0.9515662111813981 0.677810637949543 157.0 150.0 138.0
-0.04359418902824208 1.920236211181398 -2.314939362050456 106.0 105.0 50.0
-1.4676841890282424 0.6443362111813982 -3.8293993620504567 118.0 33.0 24.0
-3.1050441890282423 -0.638798788818602 3.909110637949544 203.0 151.0 149.0
-4.206714189028243 -0.623810788818602 1.3521106379495436 110.0 91.0 77.0
-0.18455418902824228 0.441924211181398 -3.410119362050456 254.0 222.0 221.0
1.3841188109717577 1.2587962111813982 -0.33782936205045644 143.0 120.0 83.0
1.0588178109717579 -0.28458178881860197 1.520010637949543 114.0 90.0 61.0
2.472065810971758 -0.17976278881860192 1.2164106379495436 194.0 135.0 134.0
-1.583354189028242 0.539516211181398 -3.6089193620504565 186.0 144.0 141.0
-2.559254189028242 -1.329160788818602 3.421210637949544 180.0 114.0 104.0
-0.5026241890282421 -0.9496427888186019 3.4176106379495437 92.0 91.0 70.0
0.6431548109717578 0.7852962111813981 -0.01978936205045656 74.0 68.0 45.0
0.8455648109717578 -0.4436178888186019 3.938110637949544 74.0 84.0 38.0
-0.4447941890282421 -0.1472327888186019 -3.258309362050457 202.0 130.0 133.0
-0.4664841890282423 1.8262662111813979 -0.1318093620504559 107.0 116.0 112.0
1.3082148109717577 -2.341213788818602 -0.22577936205045646 15.0 17.0 14.0
-2.3640741890282424 -0.3134977888186019 1.1224106379495442 84.0 67.0 31.0
-2.5447941890282424 -0.971328788818602 3.088710637949543 122.0 110.0 93.0
1.6805048109717577 0.5648162111813981 0.12121063794954345 190.0 173.0 159.0
-2.436364189028242 -1.227955788818602 3.0923106379495433 96.0 99.0 89.0
0.41905781097175776 0.6660162111813981 -2.936629362050456 161.0 144.0 59.0
0.1552028109717578 -1.0436177888186018 -2.2354193620504565 122.0 100.0 62.0
0.5961668109717578 -1.2857867888186019 -1.870359362050456 84.0 82.0 67.0
2.298575810971758 -0.41831668881860196 1.5706106379495441 193.0 110.0 102.0
0.15158781097175777 0.669636211181398 3.348910637949544 159.0 157.0 139.0
0.6178538109717577 -2.633983788818602 -1.3932493620504562 77.0 59.0 45.0
0.21303381097175778 1.9021662111813982 0.18261063794954424 112.0 83.0 80.0
-0.12311418902824212 0.3045752111813981 -3.0052993620504562 135.0 91.0 94.0
-3.2640741890282428 -0.4725336888186019 2.326010637949544 92.0 67.0 60.0
0.5744798109717578 0.550356211181398 -0.5583093620504567 85.0 82.0 46.0
3.140745810971758 0.984096211181398 1.042910637949543 163.0 155.0 143.0
3.317855810971758 0.832286211181398 1.639310637949544 165.0 157.0 141.0
-3.5416541890282423 -0.5840517888186019 1.5111106379495443 48.0 31.0 24.0
0.8780948109717578 0.8792762111813981 0.6381106379495431 160.0 160.0 130.0
0.017855810971757924 0.9515662111813981 0.3453106379495434 150.0 148.0 124.0
1.4021908109717578 1.255176211181398 -0.3125293620504568 168.0 108.0 107.0
1.3082148109717577 0.12023721118139807 0.056110637949544184 51.0 35.0 27.0
0.5600218109717578 -0.902654788818602 -1.9787993620504558 36.0 32.0 29.0
0.32869681097175785 1.8587962111813983 0.11761063794954296 47.0 36.0 22.0
1.2973718109717578 -0.20144878881860195 0.742910637949544 121.0 101.0 86.0
-1.164074189028242 0.09493621118139806 -2.604099362050457 115.0 76.0 60.0
0.06122581097175783 -0.530364688818602 -2.546269362050457 63.0 40.0 24.0
1.2901428109717579 -0.19783478881860195 -2.6293993620504565 245.0 229.0 208.0
0.8817088109717578 -0.02072578881860193 -2.0727693620504564 84.0 56.0 48.0
0.49857681097175777 -3.0243437888186016 -1.295659362050456 25.0 22.0 15.0
0.49496181097175784 -0.4110877888186019 -0.06678936205045716 82.0 64.0 51.0
-2.8809441890282423 1.4503562111813981 0.6381106379495431 144.0 59.0 71.0
0.8094198109717579 2.119036211181398 -0.699279362050456 111.0 65.0 50.0
0.5527928109717578 -0.7074737888186019 1.870610637949543 96.0 88.0 48.0
1.3407458109717578 -0.1906057888186019 4.426010637949544 219.0 209.0 201.0
-0.011064189028242133 1.9166262111813979 -1.559519362050457 176.0 201.0 196.0
-0.2749141890282423 1.8009562111813981 -2.1667493620504565 143.0 69.0 73.0
-0.5134741890282422 -2.7532537888186015 -0.699279362050456 61.0 53.0 48.0
0.8889378109717578 0.6479462111813981 1.0176106379495433 180.0 155.0 151.0
0.36845581097175784 -0.15446078881860192 -0.1679493620504573 90.0 81.0 66.0
-1.5718741890282424 -0.514229688818602 1.8773106379495434 119.0 112.0 103.0
-3.2062441890282427 0.02987621118139805 1.9790106379495427 235.0 224.0 190.0
0.3467688109717578 -1.3110877888186019 1.4224106379495431 128.0 123.0 126.0
0.046765810971757915 -2.9665137888186015 -1.0101193620504567 38.0 31.0 24.0
2.0094208109717577 0.8684262111813981 0.49711063794954313 179.0 168.0 164.0
-0.5134741890282422 -2.746033788818602 -0.7932493620504566 33.0 31.0 25.0
0.1949618109717578 2.3431262111813984 -0.5655393620504565 250.0 240.0 228.0
-1.9122641890282421 1.4395162111813982 -3.341449362050456 172.0 132.0 128.0
0.7118298109717578 0.36240621118139804 -2.3619293620504562 89.0 83.0 61.0
-1.6881741890282422 0.46722621118139807 -3.2221693620504563 102.0 102.0 47.0
0.36484181097175783 -1.3400037888186018 1.303110637949544 152.0 139.0 127.0
-1.5508241890282422 0.4563822111813981 -2.9619293620504568 156.0 126.0 125.0
-0.5207041890282422 1.963616211181398 -1.5016893620504561 130.0 72.0 65.0
-1.185764189028242 -2.471333788818602 -0.533009362050457 124.0 98.0 75.0
-2.917084189028243 -0.6857867888186019 3.5296106379495438 86.0 61.0 46.0
-0.27130418902824216 0.3551772111813981 -2.6185593620504566 144.0 139.0 51.0
-0.24961418902824217 2.252766211181398 -0.6775893620504565 142.0 141.0 158.0
-2.739974189028242 -0.7327747888186019 3.0164106379495443 96.0 85.0 72.0
-1.850824189028242 -1.1592807888186019 0.9561106379495428 160.0 117.0 90.0
-2.443594189028242 -1.224340788818602 3.197110637949544 111.0 111.0 101.0
-3.1592541890282426 -0.5990397888186019 3.909110637949544 143.0 116.0 104.0
-0.26769418902824227 2.429876211181398 -0.5691593620504563 158.0 177.0 198.0
-2.161664189028242 -0.1616897888186019 -1.8812093620504573 81.0 52.0 45.0
-3.6869641890282425 -1.325545788818602 3.714010637949544 156.0 126.0 119.0
-0.26769418902824227 1.7322862111813981 -1.1872293620504557 230.0 205.0 190.0
-2.812264189028242 -0.765304788818602 2.4706106379495427 55.0 39.0 28.0
-4.716354189028243 -0.5298347888186019 1.641210637949543 222.0 182.0 186.0
0.8889378109717578 -1.715903788818602 -1.5016893620504561 48.0 40.0 34.0
0.48050381097175776 0.7166262111813981 -3.1209593620504563 72.0 71.0 46.0
0.5058048109717578 -1.596633788818602 0.901910637949543 37.0 35.0 23.0
-0.20263418902824215 -0.32072678881860195 1.6320106379495432 62.0 59.0 52.0
0.4009858109717578 2.1154162111813983 -0.8872293620504568 124.0 107.0 103.0
-2.139984189028242 -0.783376788818602 1.0718106379495431 153.0 123.0 94.0
0.5238778109717578 0.9262662111813982 0.1501106379495436 131.0 87.0 86.0
0.2961668109717578 -3.7255437888186016 -1.1293993620504565 104.0 94.0 66.0
0.18773281097175787 0.5142142111813981 3.435710637949544 168.0 169.0 151.0
0.4443598109717578 -2.9701237888186016 -1.2486793620504564 210.0 175.0 120.0
0.15158781097175777 2.466026211181398 -1.0137393620504564 158.0 126.0 111.0
1.5286968109717578 -2.066513788818602 0.05251063794954369 66.0 84.0 32.0
1.4600228109717577 -1.744823788818602 -0.0630893620504569 174.0 173.0 154.0
0.8925528109717578 0.568426211181398 1.0031106379495434 182.0 136.0 131.0
-0.7050341890282421 1.020236211181398 0.6272106379495437 109.0 69.0 62.0
-0.07612418902824225 0.17806921118139807 0.7646106379495432 125.0 82.0 80.0
-1.3007841890282423 -0.7780857888186019 1.7580106379495444 181.0 126.0 113.0
2.674475810971758 -0.9785577888186019 1.0826106379495428 79.0 70.0 86.0
-1.1749141890282424 -2.4532537888186017 -0.4932493620504559 126.0 116.0 94.0
-2.743594189028242 0.04433421118139802 0.8947106379495438 97.0 86.0 67.0
0.3178538109717578 -3.7725337888186017 -1.4185593620504573 53.0 37.0 28.0
0.35399781097175786 0.6190362111813981 -2.8824093620504563 144.0 64.0 61.0
-1.583354189028242 1.2877062111813982 -3.6197593620504565 90.0 34.0 30.0
-1.4207041890282424 0.19614121118139805 -2.8173493620504564 189.0 124.0 119.0
0.24556381097175783 1.941926211181398 0.33081063794954346 160.0 109.0 110.0
1.0768898109717577 -0.07132878881860194 -0.0016893620504561113 147.0 122.0 97.0
0.9214678109717578 0.6660162111813981 1.0248106379495443 215.0 164.0 163.0
-0.7628741890282422 -0.09301578881860195 3.157310637949543 75.0 48.0 30.0
2.7576158109717577 0.814216211181398 0.7682106379495437 206.0 206.0 212.0
0.6467688109717578 0.6877062111813981 -0.5438593620504566 62.0 54.0 43.0
-2.3098541890282425 -0.28096778881860196 1.0140106379495428 193.0 114.0 114.0
-0.8893741890282423 1.305776211181398 3.5983106379495435 90.0 85.0 69.0
0.5744798109717578 0.944336211181398 0.2405106379495443 156.0 149.0 158.0
-3.433954189028243 -0.790605788818602 2.8537106379495434 109.0 103.0 70.0
0.3395398109717578 -0.43277488881860193 -0.11372936205045647 55.0 51.0 31.0
-0.3797341890282422 -2.7388037888186023 -0.7751793620504568 85.0 70.0 45.0
-0.9472041890282423 1.135906211181398 -2.1775893620504565 115.0 124.0 97.0
0.33231081097175785 -3.2412137888186017 -1.3787993620504562 197.0 184.0 172.0
2.298575810971758 0.7491562111813981 0.4140106379495432 94.0 82.0 69.0
1.1564079109717578 -1.8930137888186018 -0.1679493620504573 96.0 73.0 57.0
-1.326084189028242 -0.4780857888186019 1.9242106379495443 214.0 190.0 147.0
-1.0484141890282423 0.09855121118139809 -2.7342193620504567 215.0 147.0 142.0
-0.1086541890282422 1.8913262111813982 -1.407709362050456 169.0 151.0 156.0
-0.7845541890282421 -0.1616897888186019 3.153710637949544 89.0 92.0 66.0
2.902195810971758 0.9696362111813981 0.7320106379495428 176.0 133.0 112.0
1.2033958109717577 1.143126211181398 0.6308106379495442 174.0 165.0 155.0
0.0431558109717578 0.7636062111813982 3.4176106379495437 148.0 134.0 106.0
-2.7616641890282425 -0.7363887888186019 3.0778106379495433 96.0 85.0 74.0
1.3913478109717579 0.12023721118139807 4.133210637949544 130.0 122.0 91.0
-2.0785341890282423 0.2901172111813981 -0.3305993620504566 204.0 130.0 126.0
-0.7303441890282423 1.443126211181398 -1.523369362050456 183.0 199.0 212.0
-3.079734189028242 0.5648162111813981 0.39591063794954273 70.0 48.0 31.0
-0.5062441890282421 -0.9496427888186019 3.363410637949544 177.0 113.0 106.0
0.14435981097175776 0.34794821118139807 -3.3161493620504565 64.0 45.0 39.0
1.4166488109717579 -1.535183788818602 0.1067106379495435 92.0 93.0 93.0
-2.8809441890282423 1.4178262111813982 0.6344106379495429 135.0 80.0 76.0
0.7696608109717578 -2.247233788818602 -1.3896393620504561 64.0 40.0 30.0
-0.47371418902824214 -0.1580757888186019 -3.012529362050456 193.0 99.0 91.0
-1.4532341890282423 1.3093962111813982 -3.406509362050456 142.0 38.0 50.0
-0.18817418902824223 2.0937362111813984 -1.6607193620504557 219.0 144.0 148.0
0.5021908109717578 0.8575862111813981 -2.9040993620504567 114.0 98.0 64.0
0.3178538109717578 -3.577353788818602 -1.4040993620504558 44.0 27.0 22.0
-1.424314189028242 -1.799043788818602 0.3091106379495443 148.0 129.0 109.0
2.1033958109717577 0.7889162111813981 0.4899106379495439 247.0 221.0 218.0
-2.436364189028242 -0.562894888818602 1.1658106379495443 56.0 46.0 39.0
-2.548414189028242 -0.15446078881860192 -1.512529362050456 28.0 30.0 24.0
0.41182881097175783 0.832286211181398 -0.746269362050457 251.0 232.0 219.0
-1.0014241890282423 1.121446211181398 -0.6667493620504565 189.0 164.0 157.0
1.3009868109717577 -2.435183788818602 -0.3414493620504562 22.0 22.0 16.0
1.0118298109717578 0.9081862111813981 0.7067106379495431 163.0 151.0 143.0
2.4431558109717577 0.810596211181398 0.6344106379495429 202.0 161.0 138.0
0.028695810971757885 0.32264721118139805 0.5477106379495442 55.0 45.0 29.0
0.8636368109717578 2.126266211181398 -0.7643393620504568 125.0 130.0 126.0
0.10098581097175785 0.06240621118139811 0.7501106379495432 136.0 84.0 86.0
1.792552810971758 0.08047821118139808 2.2176106379495426 134.0 138.0 61.0
1.120263820971758 -2.6231337888186017 -0.655899362050457 20.0 16.0 12.0
-1.8363641890282423 -0.6496417888186019 2.582610637949543 152.0 137.0 121.0
3.0865258109717577 0.46722621118139807 1.2019106379495437 120.0 116.0 114.0
-2.2447941890282426 -0.12554578881860196 -1.7004793620504568 76.0 63.0 44.0
-0.4158841890282421 0.4383102111813981 -2.835419362050456 161.0 161.0 132.0
0.6973718109717578 2.310596211181398 -1.9932493620504559 83.0 60.0 33.0
1.4202638109717578 2.176866211181398 -1.2631293620504565 138.0 92.0 93.0
2.345565810971758 -0.812292788818602 1.6357106379495434 88.0 81.0 65.0
0.30700981097175783 -0.7580757888186019 -2.076389362050456 50.0 42.0 34.0
0.18411881097175786 1.819036211181398 -1.0245793620504564 155.0 176.0 187.0
0.07929581097175786 0.48529821118139804 3.4031106379495437 117.0 112.0 71.0
-1.456844189028242 0.17806921118139807 -2.669159362050457 128.0 89.0 84.0
2.3744758109717576 1.284096211181398 0.5188106379495441 122.0 123.0 64.0
-1.3809441890282421 -1.119521788818602 3.547710637949544 218.0 164.0 151.0
1.4744808109717578 -0.1616897888186019 1.7043106379495434 112.0 105.0 47.0
0.8383358109717578 -2.756873788818602 -0.8474693620504556 24.0 19.0 15.0
-1.3845541890282422 0.2033702111813981 -2.8173493620504564 120.0 50.0 48.0
0.6901428109717578 -0.512292788818602 1.3537106379495434 69.0 55.0 44.0
-1.109854189028242 -0.00988278881860194 -2.5101193620504567 143.0 103.0 63.0
-0.10142418902824213 -2.9014537888186016 -0.9125293620504564 49.0 35.0 26.0
-1.8905841890282422 -0.971328788818602 1.0176106379495433 144.0 120.0 99.0
-1.6881741890282422 -0.8267507888186019 2.5682106379495426 43.0 38.0 32.0
0.6106248109717578 1.2081862111813981 -0.7824093620504566 58.0 53.0 39.0
-1.109854189028242 -2.706273788818602 -0.6595193620504567 40.0 44.0 39.0
0.5672508109717578 -0.9857867888186019 2.0260106379495433 132.0 133.0 132.0
0.7624318109717578 -1.499043788818602 0.6670106379495433 85.0 82.0 67.0
-0.20263418902824215 0.3949362111813981 -3.2619293620504566 200.0 145.0 117.0
0.3467688109717578 1.681686211181398 -0.9558993620504559 200.0 182.0 162.0
3.2780958109717577 0.8612062111813981 1.1585106379495436 106.0 98.0 84.0
0.4009858109717578 -0.4797628888186019 -2.7414493620504565 178.0 126.0 124.0
0.4226728109717578 2.176866211181398 -0.8655393620504572 95.0 100.0 101.0
-0.44841418902824226 -0.13277478881860194 -3.2799993620504564 221.0 151.0 157.0
0.5166488109717579 -2.7424137888186015 -1.3751793620504564 159.0 115.0 88.0
0.30339581097175783 -3.8303637888186017 -1.4221693620504556 36.0 29.0 22.0
-1.446004189028242 -1.741213788818602 0.4104106379495427 56.0 52.0 43.0
0.4877328109717578 0.008189211181398093 -1.624579362050456 46.0 29.0 26.0
0.4479738109717578 -0.935184788818602 2.0983106379495435 91.0 65.0 50.0
0.4841188109717578 -0.3387987888186019 1.6284106379495427 105.0 95.0 66.0
-0.025524189028242272 1.9346962111813981 -1.5812093620504566 175.0 194.0 209.0
-0.6291341890282423 -0.7110877888186019 3.0525106379495437 119.0 94.0 81.0
-0.4881741890282423 -2.840003788818602 -0.6522893620504568 34.0 24.0 17.0
-0.0038341890282422852 -0.04241278881860194 0.6814106379495435 84.0 69.0 51.0
0.7696608109717578 -2.344823788818602 -1.407709362050456 74.0 53.0 39.0
0.5058048109717578 -0.26289478881860195 1.3826106379495435 74.0 70.0 54.0
0.5636368109717578 -0.28458178881860197 1.303110637949544 62.0 52.0 32.0
0.8347208109717579 2.484096211181398 -0.9378293620504561 171.0 148.0 148.0
0.8527938109717579 2.166026211181398 -0.634219362050457 172.0 176.0 177.0
-0.30021418902824215 1.866026211181398 -0.27276936205045565 219.0 201.0 202.0
0.11544381097175782 -3.7508537888186018 -1.3679493620504566 198.0 195.0 170.0
-2.559254189028242 -0.2954247888186019 2.6116106379495427 103.0 92.0 53.0
0.9503838109717578 -1.502653788818602 -0.0630893620504569 71.0 53.0 42.0
1.0624318109717579 1.410596211181398 0.12481063794954395 248.0 181.0 184.0
0.0684558109717579 1.873246211181398 -1.4763893620504565 92.0 101.0 101.0
3.5238758109717576 -0.664099788818602 1.3357106379495427 125.0 111.0 112.0
-0.09419418902824228 1.876866211181398 -1.519759362050456 92.0 84.0 68.0
-0.18094418902824216 1.717826211181398 -2.4775893620504563 194.0 97.0 98.0
0.0684558109717579 0.662406211181398 1.2706106379495434 131.0 113.0 110.0
0.6901428109717578 -0.33156978881860194 -0.05948936205045641 49.0 43.0 37.0
0.49496181097175784 -0.6677147888186019 0.0489106379495432 54.0 38.0 30.0
2.3817058109717575 -0.5918107888186019 1.133210637949544 100.0 104.0 97.0
1.6371308109717577 -0.32072678881860195 2.1670106379495433 98.0 92.0 46.0
0.35399781097175786 2.4624062111813982 -0.45710936205045627 139.0 123.0 94.0
0.5274918109717578 0.441924211181398 -2.2173493620504567 180.0 95.0 94.0
1.134720810971758 1.435896211181398 0.14291063794954262 125.0 108.0 91.0
-2.678534189028242 -0.6677147888186019 2.2935106379495434 104.0 57.0 48.0
-2.150824189028242 -0.8520517888186019 1.0971106379495428 92.0 84.0 67.0
1.1853238109717579 0.011804211181398072 4.097110637949543 145.0 132.0 110.0
-0.1773241890282422 1.941926211181398 -1.519759362050456 233.0 238.0 232.0
-4.409124189028242 -0.6997147888186019 1.496710637949544 58.0 48.0 30.0
1.5033958109717578 0.19975621118139808 4.158510637949544 154.0 148.0 60.0
-2.7219041890282423 -0.573738788818602 2.8357106379495427 112.0 87.0 86.0
0.09014581097175789 1.9057762111813983 -1.3390393620504568 135.0 147.0 156.0
1.4672518109717578 -0.3894008888186019 1.415210637949544 76.0 59.0 26.0
1.3913478109717579 0.21059921118139802 0.1393106379495439 136.0 120.0 96.0
-1.1966041890282424 1.5118062111813981 -1.1474693620504564 60.0 51.0 38.0
-1.6086541890282422 0.4130092111813981 -3.4787993620504567 168.0 135.0 137.0
0.8130338109717579 2.2202362111813985 -0.9884293620504572 170.0 159.0 141.0
-0.007444189028242176 0.15638221118139806 -2.8571093620504566 200.0 144.0 129.0
0.3829138109717578 -1.119521788818602 -2.1125293620504566 212.0 144.0 150.0
-1.099014189028242 1.2877062111813982 -1.4185593620504573 144.0 132.0 126.0
-0.4556441890282421 1.649156211181398 -1.353489362050457 161.0 145.0 155.0
-0.0038341890282422852 0.019033211181398058 0.6706106379495438 104.0 83.0 75.0
-0.3291341890282422 1.7901162111813982 -0.8438593620504573 213.0 189.0 185.0
-2.595404189028242 -0.8773527888186019 2.803110637949544 48.0 31.0 24.0
-0.6616641890282422 0.933496211181398 0.616410637949544 137.0 104.0 91.0
-2.5881741890282424 -1.2857867888186019 3.522410637949543 44.0 35.0 26.0
3.2274958109717575 0.2467442111813981 1.1947106379495427 111.0 95.0 50.0
-0.4954041890282421 0.9262662111813982 0.5079106379495428 123.0 119.0 109.0
1.0660468109717578 2.534696211181398 -0.7390393620504572 247.0 236.0 235.0
0.9070098109717578 -2.1026537888186017 -1.4040993620504558 32.0 29.0 21.0
-0.9363641890282424 1.237106211181398 3.663410637949543 123.0 129.0 85.0
0.2600218109717578 2.053976211181398 0.034410637949543244 202.0 188.0 188.0
0.10098581097175785 1.909396211181398 -0.5799993620504562 182.0 167.0 168.0
0.8744798109717578 2.1154162111813983 -0.20409936205045653 191.0 165.0 160.0
0.5853238109717578 -1.072533788818602 2.0549106379495434 53.0 53.0 35.0
-2.6857641890282418 -0.6894007888186019 2.297110637949544 47.0 37.0 30.0
1.7058058109717578 -1.925543788818602 0.16101063794954307 61.0 68.0 61.0
-3.3291341890282427 -0.906268788818602 2.6947106379495427 54.0 54.0 42.0
-0.05805418902824222 1.963616211181398 0.2405106379495443 83.0 51.0 57.0
-1.297814189028242 -0.08940078881860192 -2.4522893620504567 170.0 140.0 118.0
2.5226758109717577 -0.8303647888186019 1.079010637949544 80.0 85.0 82.0
-0.6327541890282422 0.30096021118139804 2.510410637949544 99.0 82.0 58.0
1.2937578109717578 -0.8375937888186019 1.7152106379495429 87.0 91.0 56.0
-0.45202418902824215 1.7684262111813982 -1.454699362050457 87.0 74.0 63.0
2.7792958109717576 1.237106211181398 1.0682106379495426 226.0 172.0 180.0
2.4214658109717577 -0.37494268881860193 1.252510637949543 114.0 100.0 93.0
1.843154810971758 -0.5231357888186019 0.9778106379495437 170.0 158.0 149.0
0.6865278109717579 -2.883373788818602 -0.9667493620504573 32.0 28.0 23.0
2.7033958109717577 0.8286762111813981 0.6236106379495432 221.0 178.0 179.0
-1.7098541890282422 -0.12193078881860192 2.976610637949543 84.0 63.0 55.0
-0.4664841890282423 -0.16891878881860195 -2.9944593620504563 163.0 142.0 123.0
1.131106810971758 -2.221933788818602 -0.3342193620504563 125.0 99.0 80.0
-0.7484141890282421 1.7539762111813981 -0.6089193620504574 194.0 194.0 196.0
-0.05082418902824215 2.400966211181398 -0.5763893620504561 95.0 93.0 79.0
-1.626724189028242 0.503370211181398 -3.6305993620504564 177.0 121.0 106.0
0.0684558109717579 0.05156321118139806 -2.737829362050457 150.0 87.0 85.0
1.1058057909717578 1.978066211181398 -1.7438593620504559 237.0 245.0 243.0
0.9792998109717578 -0.06048578881860195 3.638110637949543 116.0 83.0 62.0
0.2633308109717578 -0.05789178881860191 -1.3175493620504568 107.0 77.0 46.0
-1.312264189028242 -2.1857837888186022 -0.19324936205045695 150.0 123.0 94.0
0.7732748109717578 2.075656211181398 -0.6269893620504572 191.0 120.0 127.0
-0.6219041890282422 -0.06048578881860195 2.9622106379495428 78.0 67.0 46.0
-1.760464189028242 1.1286762111813982 -3.825779362050456 96.0 77.0 50.0
0.5780948109717579 2.010596211181398 -0.8257793620504561 114.0 116.0 100.0
-1.684554189028242 0.980476211181398 -3.3812093620504564 177.0 185.0 191.0
-1.6990141890282422 0.28288821118139806 -3.3775893620504567 83.0 64.0 46.0
0.8527938109717579 -1.556873788818602 -1.6462693620504574 68.0 62.0 51.0
-0.19540418902824208 -0.16530478881860194 2.810410637949543 73.0 65.0 42.0
0.5202628109717579 -0.03518378881860196 1.2851106379495434 121.0 104.0 88.0
-0.7194941890282422 -2.699043788818602 -0.6197593620504573 107.0 98.0 84.0
-0.054434189028242264 2.5491562111813977 -1.219759362050457 87.0 57.0 53.0
-0.7050341890282421 1.519036211181398 -1.4980693620504564 229.0 250.0 254.0
-0.5966041890282421 -0.515906788818602 3.063410637949543 166.0 85.0 77.0
