-2.3101333337521375 1.4514252525833464 -1.3701366081157396 89.0 110.0 113.0
-0.07911733375213759 0.8240752525833464 -2.1847566081157392 17.0 255.0 0.0
-4.1338933337521375 1.0530652525833464 2.4640633918842614 87.0 110.0 125.0
4.132156666247862 0.4088352525833463 -1.6409466081157387 78.0 72.0 62.0
1.0759586662478626 0.24699725258334637 -4.1400566081157395 63.0 77.0 59.0
3.6933366662478626 -0.07044874741665363 -0.16263660811574 48.0 57.0 58.0
2.4702366662478625 -1.2748777474166535 1.9194633918842605 94.0 115.0 118.0
-2.7147233337521373 0.2967932525833463 3.2981633918842608 37.0 49.0 73.0
-0.3024883337521376 -1.9986247474166536 1.5950633918842598 255.0 39.0 0.0
-0.19693833375213754 1.4171952525833464 -4.75315660811574 66.0 72.0 66.0
-3.735533333752138 0.34658825258334636 3.4599633918842603 43.0 52.0 88.0
4.284656666247862 -0.23850874741665368 0.18906339188426102 38.0 52.0 55.0
3.8240466662478623 0.6920452525833463 -1.5942366081157395 103.0 108.0 100.0
-3.0788533337521375 -0.45013974741665363 2.7472633918842604 27.0 38.0 54.0
4.265986666247862 0.40260525258334634 1.7171633918842613 99.0 123.0 105.0
-4.382873333752138 0.41816525258334636 -0.31513660811573985 60.0 77.0 72.0
-3.5768133337521375 0.5706652525833464 4.25666339188426 55.0 81.0 96.0
-3.1722233337521377 0.2158752525833464 4.59286339188426 32.0 46.0 76.0
-2.0798333337521377 -0.6430976974166537 0.07696339188426116 21.0 32.0 52.0
-2.263453333752137 0.9814852525833464 -0.24663660811573962 70.0 84.0 95.0
3.080226666247863 -1.1037057474166536 -2.42521660811574 39.0 50.0 54.0
-1.5632033337521374 2.2512652525833463 -0.7788366081157392 150.0 170.0 153.0
-0.5890833337521375 -0.7022298474166536 -0.5796366081157398 25.0 26.0 44.0
0.2636696662478625 0.2594462525833463 -3.2810866081157393 65.0 81.0 96.0
-4.2054733337521375 0.3777052525833464 1.6642633918842602 65.0 77.0 89.0
-0.8007133337521375 -2.8776747474166537 1.1787633918842602 20.0 27.0 44.0
3.9672066662478622 0.6671452525833463 -1.6969666081157389 133.0 161.0 78.0
-0.9594333337521375 -0.8796257474166537 1.9910633918842606 26.0 33.0 46.0
1.5832466662478624 0.8818952525833463 -3.0321066081157397 96.0 125.0 104.0
1.5801366662478624 1.7501952525833462 3.067863391884261 71.0 86.0 65.0
-0.5415833337521376 0.8293752525833464 3.60946339188426 17.0 255.0 0.0
0.28856766624786245 -2.778074747416654 1.7295633918842608 57.0 59.0 66.0
-0.7073433337521375 -0.47192574741665366 -0.6108366081157399 32.0 39.0 53.0
4.029456666247863 0.7138252525833464 0.06146339188425998 112.0 140.0 115.0
1.7326366662478625 2.285505252583346 0.5593633918842613 80.0 88.0 72.0
1.5521266662478626 0.7822952525833464 -2.97297660811574 73.0 82.0 87.0
-1.9677933337521376 1.4327552525833462 4.350063391884261 119.0 137.0 132.0
-0.13158233375213757 0.9067852525833464 -4.706476608115739 85.0 89.0 85.0
1.3467226662478624 -1.1410527474166536 1.1413633918842603 54.0 65.0 53.0
3.6995566662478625 -0.34743674741665365 2.3924633918842613 70.0 85.0 80.0
0.11739566624786246 0.2594462525833463 5.373963391884262 39.0 54.0 80.0
-3.2873733337521376 -0.10157174741665365 1.016863391884261 29.0 44.0 45.0
-1.5165233337521375 1.0312752525833464 4.673763391884259 78.0 107.0 102.0
-3.517673333752138 0.9534752525833463 3.5657633918842606 89.0 115.0 130.0
-1.0123433337521375 -2.2894647474166536 1.2160633918842603 39.0 42.0 51.0
3.811596666247863 -0.04555174741665369 -0.08173660811574024 50.0 63.0 69.0
0.7242786662478624 -0.06733674741665363 -3.7790366081157396 57.0 71.0 71.0
-1.1212633337521376 0.7916352525833463 4.9476633918842605 102.0 125.0 115.0
-2.1480433337521374 0.6833852525833464 3.272963391884261 41.0 255.0 0.0
2.1216666662478625 0.8009752525833465 -4.25831660811574 191.0 218.0 113.0
4.032566666247862 -0.7177908474166537 1.3063633918842612 44.0 56.0 59.0
-2.3754933337521376 1.9587152525833462 -2.41277660811574 194.0 224.0 130.0
0.7865226662478625 -2.4388447474166535 -0.4427366081157391 32.0 43.0 50.0
2.812576666247862 1.1588752525833463 -1.8494666081157387 101.0 116.0 87.0
-2.216773333752138 -0.5403947474166536 0.7336633918842601 36.0 44.0 57.0
-0.12846933375213754 0.8881152525833464 5.654063391884259 74.0 105.0 134.0
-0.13158233375213757 0.10072325258334636 -3.775926608115739 45.0 57.0 62.0
1.1133056662478624 0.9441352525833464 -4.2458666081157395 111.0 137.0 100.0
3.2856366662478624 0.01980525258334631 2.8717633918842598 65.0 77.0 66.0
-1.5449533337521377 2.0550052525833467 3.36476339188426 0.0 76.0 178.0
-3.010383333752138 0.013581252583346304 0.10816339188426127 22.0 32.0 53.0
3.733796666247862 0.2532212525833464 -0.4085366081157389 56.0 69.0 59.0
-3.6172633337521374 0.3341392525833463 0.2170633918842615 64.0 81.0 107.0
-1.0590233337521375 -0.23228474741665367 4.39056339188426 25.0 40.0 64.0
3.4038966662478627 -0.25406974741665367 -0.22173660811573903 61.0 68.0 74.0
-2.7427333337521373 1.3860652525833463 -1.35773660811574 86.0 102.0 113.0
-3.6826233337521375 -0.18871374741665364 1.14756339188426 28.0 37.0 57.0
-4.529153333752138 1.0312752525833464 2.1995633918842614 149.0 177.0 182.0
-1.4667233337521375 0.4804152525833463 5.283763391884262 63.0 97.0 96.0
2.6694166662478622 0.2656702525833463 -3.6607766081157394 116.0 148.0 77.0
3.7835866662478628 0.6546952525833463 -0.5796366081157398 115.0 129.0 106.0
1.5956966662478624 -0.36299774741665364 -2.38476660811574 21.0 26.0 45.0
-0.8909633337521374 -2.6691547474166537 0.9452633918842608 48.0 61.0 70.0
1.0168266662478624 -0.9636557474166536 2.4453633918842606 49.0 60.0 59.0
-1.9460033337521374 -0.6897806474166537 0.09566339188426021 89.0 74.0 57.0
3.5812966662478622 0.3310272525833463 -2.6430766081157397 72.0 91.0 69.0
1.5023336662478624 -0.7302397474166537 -2.0330766081157385 14.0 22.0 40.0
-2.241663333752138 1.8311152525833465 -2.5248166081157386 59.0 65.0 76.0
-2.126513333752137 1.0779652525833463 3.8489633918842614 103.0 120.0 104.0
3.631086666247862 -0.8578407474166536 -2.39409660811574 35.0 46.0 50.0
0.18897666624786247 -0.9418707474166537 -3.27796660811574 31.0 39.0 51.0
-2.531103333752138 0.15985525258334632 -1.1430366081157395 39.0 40.0 60.0
3.070886666247863 1.4887752525833464 -0.6201366081157396 155.0 182.0 84.0
0.8861136662478625 -2.1711947474166537 -0.3960366081157396 25.0 37.0 48.0
3.6093066662478623 -0.011316747416653672 -0.9033366081157386 55.0 64.0 63.0
2.8001266662478628 1.2491352525833463 -2.3598666081157393 116.0 144.0 100.0
-2.5808933337521376 0.050927252583346294 -0.8162366081157391 58.0 71.0 87.0
-2.7614033337521375 0.6017852525833463 -1.8992566081157403 28.0 40.0 38.0
0.9078996662478624 -1.9813547474166537 -1.3359366081157393 68.0 80.0 71.0
0.2979046662478625 -1.0539107474166536 0.16726339188426032 40.0 48.0 57.0
-2.895233333752137 0.5395452525833464 3.28256339188426 72.0 90.0 131.0
-2.0424833337521378 1.2864752525833463 -2.1077766081157385 79.0 98.0 96.0
3.2265066662478628 -0.4750377474166536 -1.3141366081157386 28.0 41.0 55.0
-2.9917133337521378 0.1193962525833463 4.695563391884262 31.0 41.0 74.0
-0.8380533337521376 0.2252112525833464 -3.8755166081157393 60.0 65.0 71.0
3.9516466662478624 0.28123125258334636 -2.3225166081157393 129.0 148.0 118.0
-4.021853333752138 0.6764852525833462 0.6496633918842605 63.0 77.0 90.0
-1.5787633337521376 -0.6057508474166536 0.41626339188426087 23.0 34.0 52.0
2.7378866662478627 -1.3277857474166537 -1.78721660811574 59.0 63.0 67.0
-2.216773333752138 0.8507652525833465 -2.07353660811574 45.0 56.0 70.0
-1.8277433337521376 -0.8236057474166536 0.17966339188425984 38.0 41.0 54.0
0.9203476662478625 0.007356252583346379 -1.8774666081157392 44.0 53.0 58.0
-0.30275433375213756 -0.9169727474166536 -3.150366608115739 38.0 51.0 59.0
-1.4511633337521375 -0.2851927474166536 -0.11283660811573881 33.0 44.0 54.0
1.5614666662478625 1.4047452525833461 -4.47617660811574 230.0 233.0 212.0
-3.8818033337521376 0.8352052525833464 2.8997633918842602 45.0 62.0 87.0
-0.16581633375213756 -1.5363047474166538 0.22636339188426113 16.0 22.0 38.0
-0.7664733337521374 -1.0601347474166536 1.913163391884261 36.0 43.0 53.0
-0.17515333375213749 0.8694452525833463 -4.236536608115739 106.0 108.0 87.0
-4.305073333752138 1.2429052525833464 3.7338633918842614 114.0 144.0 161.0
4.816846666247862 0.2252112525833464 1.5303633918842614 107.0 132.0 106.0
2.1123266662478626 0.9285752525833464 -2.789346608115739 102.0 116.0 115.0
-2.3288133337521373 0.7480652525833464 -0.7882366081157386 66.0 84.0 105.0
3.360326666247863 0.9347952525833463 0.005463391884260815 109.0 127.0 106.0
3.8520566662478624 1.3238252525833463 0.37266339188426123 124.0 158.0 97.0
0.8456546662478625 -1.5985487474166535 2.08436339188426 29.0 32.0 42.0
2.5822766662478625 -0.8516157474166537 -0.7041366081157392 50.0 60.0 63.0
3.768026666247862 -0.5621796474166536 0.9919633918842603 43.0 51.0 57.0
4.1975166662478625 0.4866352525833464 -0.9624366081157394 96.0 118.0 78.0
1.1039686662478625 -1.0507987474166536 2.2430633918842613 21.0 28.0 40.0
1.4525376662478626 1.6101452525833462 4.707963391884261 119.0 145.0 117.0
0.18897666624786247 -1.1068177474166536 -3.57362660811574 39.0 50.0 55.0
-3.4460933337521373 0.6235752525833465 -0.06303660811573941 46.0 54.0 56.0
-0.016430333752137538 -2.2925747474166536 0.5967633918842612 37.0 36.0 45.0
-2.235443333752137 0.49908525258334624 4.0699633918842615 49.0 61.0 77.0
3.1549166662478623 -1.1659507474166535 2.5574633918842604 38.0 44.0 51.0
0.039023666247862465 -1.4852247474166536 1.4502633918842598 255.0 121.0 0.0
0.26989466624786246 -1.8195147474166538 0.5905633918842614 44.0 44.0 55.0
1.4058546662478624 2.1423352525833463 3.2981633918842608 87.0 104.0 97.0
1.9100366662478625 -0.4439157474166536 -3.617196608115739 77.0 96.0 88.0
-4.155683333752138 0.44617525258334645 -0.38673660811573995 60.0 75.0 83.0
-0.6108633337521376 0.2563342525833463 -3.7696966081157397 67.0 72.0 69.0
-4.426443333752138 0.7231652525833463 2.56676339188426 70.0 87.0 107.0
-3.769763333752138 0.08827425258334631 2.38006339188426 28.0 41.0 57.0
-0.2124993337521376 0.9036752525833462 -4.532196608115739 97.0 118.0 69.0
-1.9148833337521374 1.9556052525833463 -1.20833660811574 98.0 117.0 115.0
-0.5330633337521375 -3.7024047474166535 0.939063391884261 77.0 79.0 75.0
-2.4688633337521377 0.17230425258334636 -0.9718366081157388 39.0 46.0 59.0
-0.7913733337521376 1.2958152525833464 -3.06944660811574 64.0 80.0 77.0
2.2648266662478624 1.3020352525833463 -3.2063866081157393 120.0 138.0 108.0
3.145586666247863 -0.5403947474166536 -0.9811366081157402 32.0 39.0 54.0
1.9255966662478625 -0.4408037474166536 -2.28205660811574 27.0 39.0 55.0
-0.5239433337521375 -0.5441117474166537 1.3874633918842605 237.0 255.0 0.0
-3.0181133337521375 -0.19290774741665367 1.5283633918842607 180.0 255.0 0.0
-2.5124333337521376 0.02602925258334632 4.051263391884261 38.0 50.0 74.0
-3.0975233337521377 0.2220992525833464 2.8997633918842602 50.0 66.0 90.0
0.6091266662478625 -1.3526837474166538 -2.33807660811574 16.0 24.0 32.0
3.904966666247862 -0.5061597474166537 0.13306339188426008 53.0 63.0 65.0
-1.1399433337521376 0.8320952525833463 -2.45322660811574 67.0 85.0 96.0
-3.6297133337521377 -0.24162074741665363 0.7305633918842602 33.0 42.0 58.0
-3.327833333752138 1.8840252525833463 -2.0081866081157393 100.0 126.0 76.0
-0.8785133337521376 -1.0601347474166536 1.9816633918842612 32.0 39.0 52.0
-4.021853333752138 0.8352052525833464 -0.371136608115739 77.0 94.0 67.0
2.6880866662478624 0.3839352525833464 -2.3723166081157387 65.0 79.0 82.0
2.2710566662478624 -0.5341697474166537 -3.0756766081157387 46.0 57.0 64.0
-3.2687033337521374 1.3611752525833463 3.6591633918842614 102.0 121.0 109.0
-1.5258533337521374 0.7947452525833463 5.33666339188426 83.0 108.0 105.0
1.7295266662478626 1.4109652525833465 -3.00098660811574 92.0 115.0 98.0
-3.9004833337521374 0.9192352525833463 3.295063391884261 87.0 103.0 116.0
2.532476666247862 -1.1068177474166536 2.3862633918842615 120.0 148.0 141.0
0.43484166624786247 -0.9045237474166536 -0.3462366081157402 32.0 35.0 50.0
-2.2012033337521375 -0.5435067474166536 1.0262633918842603 22.0 28.0 44.0
2.252376666247862 1.0592852525833463 -3.2717466081157394 121.0 138.0 129.0
-2.4377333337521376 0.6329152525833464 0.05206339188426057 43.0 57.0 83.0
0.38815866624786244 0.07271325258334638 -4.55397660811574 91.0 120.0 73.0
-4.305073333752138 0.3559252525833463 1.8353633918842611 46.0 57.0 80.0
2.2959466662478625 -1.3308977474166537 1.63306339188426 37.0 41.0 52.0
3.335596666247863 1.1044352525833463 1.7243633918842605 0.0 228.0 26.0
1.0759586662478626 0.13495725258334634 -1.9988466081157394 41.0 52.0 53.0
-2.9917133337521378 -0.5466186474166537 2.7285633918842613 32.0 44.0 60.0
-2.341253333752138 -0.5777406474166537 -0.14083660811573928 27.0 29.0 44.0
1.5770266662478625 -2.3952747474166536 -0.87223660811574 57.0 67.0 69.0
3.6186466662478622 -0.9667687474166536 -2.1139966081157393 60.0 66.0 65.0
2.423546666247862 -0.18248874741665366 -3.7323566081157393 76.0 87.0 79.0
0.3383626662478625 -0.3754467474166536 -3.6140866081157395 47.0 60.0 76.0
1.5583566662478625 -0.16381574741665367 -2.45322660811574 51.0 59.0 71.0
4.325116666247863 -0.10779574741665365 -2.2011466081157387 57.0 77.0 80.0
-3.081963333752138 -0.6119757474166536 2.6321633918842604 20.0 31.0 50.0
-2.207433333752138 -0.49993574741665364 0.69636339188426 41.0 49.0 70.0
-1.8215133337521376 0.5302052525833463 -1.7965566081157398 22.0 32.0 58.0
-0.6046433337521375 -3.708634747416654 1.1538633918842613 26.0 31.0 49.0
0.36014866624786246 -0.4408037474166536 -3.5269466081157397 36.0 48.0 64.0
1.1537646662478624 0.5551052525833464 -3.9035266081157394 82.0 98.0 97.0
3.590636666247862 -0.8391677474166537 -1.4884366081157392 46.0 50.0 55.0
-0.4147943337521376 0.20031425258334634 3.929963391884261 31.0 49.0 50.0
-3.0446233337521376 0.3154662525833464 4.20696339188426 34.0 51.0 74.0
-3.2375733337521373 -0.07356174741665367 1.8104633918842605 39.0 50.0 67.0
-0.26540733375213754 -0.23228474741665367 -3.8443966081157397 38.0 52.0 55.0
1.3373856662478625 1.1153052525833465 -4.02490660811574 90.0 101.0 103.0
0.12984466624786245 -0.4408037474166536 3.1020633918842613 35.0 45.0 65.0
-2.2478933337521374 -1.0259007474166537 0.20456339188426043 114.0 123.0 149.0
-3.751093333752138 0.5644452525833463 0.6185633918842601 56.0 64.0 83.0
0.3352506662478625 -0.5590676474166536 0.23266339188426066 35.0 44.0 49.0
2.0065166662478626 1.4265252525833463 -3.11613660811574 142.0 161.0 150.0
-0.04755233375213752 -0.9200847474166536 2.619663391884261 19.0 28.0 44.0
0.16719066624786244 -0.37855874741665363 -3.520726608115739 64.0 78.0 85.0
-0.2156123337521375 -0.5746286474166536 -2.70843660811574 22.0 37.0 49.0
0.20142566624786246 -0.10468374741665365 -2.6835366081157392 28.0 37.0 56.0
-2.948143333752138 -0.5995267474166537 2.30846339188426 32.0 41.0 64.0
-0.7913733337521376 0.7449552525833463 -3.710566608115739 94.0 93.0 81.0
0.7398396662478625 -0.5839657474166536 -3.57362660811574 45.0 54.0 57.0
2.5916066662478627 0.30924125258334634 -1.80588660811574 52.0 63.0 65.0
-3.7261933337521373 1.0686252525833464 4.110463391884261 115.0 140.0 106.0
-3.9689433337521374 0.8383152525833464 1.6362633918842615 60.0 77.0 98.0
0.7616246662478625 -0.6088626474166536 -3.5923066081157398 49.0 50.0 52.0
1.2502436662478624 2.4660052525833462 1.2316633918842612 78.0 87.0 73.0
2.2866166662478626 0.6422452525833464 -3.3059766081157402 100.0 117.0 116.0
4.374916666247863 0.4959752525833463 -0.26533660811573867 82.0 106.0 69.0
-3.334053333752138 0.3185782525833464 2.470263391884261 77.0 99.0 87.0
-0.9905533337521375 0.1940892525833463 -3.492716608115739 52.0 65.0 74.0
-3.7324233337521378 0.4368452525833464 0.14856339188426126 46.0 63.0 78.0
-3.788443333752138 0.6764852525833462 3.369763391884261 67.0 86.0 108.0
1.8944766662478625 0.6671452525833463 4.530563391884259 81.0 104.0 72.0
-1.4853933337521374 1.1962252525833463 -2.173126608115739 98.0 111.0 108.0
0.24309866624786247 1.9733852525833464 2.542763391884261 0.0 88.0 166.0
-4.183693333752138 0.23454825258334633 0.88616339188426 22.0 39.0 46.0
2.965076666247862 1.2958152525833464 -1.7903266081157394 131.0 166.0 102.0
-2.415953333752138 1.7004052525833464 -1.8930366081157395 227.0 230.0 203.0
-1.6410033337521377 -0.11090774741665366 -0.10973660811573893 40.0 50.0 58.0
-0.031991333752137585 -3.0146047474166533 0.6278633918842598 42.0 42.0 48.0
1.8446766662478624 -0.28207974741665365 -3.7292366081157393 84.0 97.0 90.0
3.027316666247862 2.0769852525833468 1.03556339188426 85.0 90.0 107.0
-0.6731033337521375 -2.7407347474166537 1.6206633918842606 58.0 57.0 67.0
-3.0446233337521376 0.1536302525833464 -0.13153660811573964 58.0 72.0 79.0
2.9899766662478626 1.3175952525833463 -1.8401266081157388 119.0 147.0 129.0
-3.0788533337521375 0.14429425258334638 4.829363391884259 46.0 62.0 88.0
3.045996666247863 -0.5684037474166537 -3.5954166081157393 84.0 108.0 75.0
3.811596666247863 -0.8765137474166537 2.510763391884261 78.0 101.0 106.0
3.8271566662478627 0.4866352525833464 2.64766339188426 53.0 58.0 62.0
-0.4241303337521375 -1.4771727474166536 2.3364633918842603 16.0 28.0 50.0
-2.3661533337521377 0.4617452525833463 -2.3287466081157397 40.0 52.0 67.0
1.8571266662478625 0.5675552525833463 4.39366339188426 75.0 95.0 66.0
3.1580366662478623 0.3185782525833464 -3.691896608115739 158.0 185.0 113.0
-1.5102933337521376 -1.6639047474166537 2.52636339188426 38.0 48.0 60.0
-4.494913333752137 0.9223452525833464 2.286663391884261 69.0 79.0 95.0
2.775226666247862 2.2170352525833463 -1.8401266081157388 115.0 130.0 137.0
0.8581036662478625 -2.199204747416654 -0.8691366081157401 26.0 41.0 38.0
-0.013317333752137506 -1.8568647474166537 0.602963391884261 55.0 66.0 63.0
-2.9574733337521373 -0.07356174741665367 0.7087633918842613 27.0 37.0 49.0
-3.091303333752138 0.0011322525833463715 -0.18443660811573892 29.0 42.0 54.0
-3.2313533337521374 1.2491352525833463 3.5222633918842607 110.0 130.0 147.0
2.109216666247862 -1.2219707474166537 0.24816339188426007 60.0 64.0 68.0
3.002426666247862 -1.1286037474166537 2.5978633918842604 40.0 44.0 53.0
0.5468816662478625 -0.4781497474166536 -3.5082766081157395 50.0 62.0 74.0
2.0998766662478623 -1.2406437474166536 1.1942633918842613 35.0 44.0 46.0
-3.598593333752138 -0.23228474741665367 1.7295633918842608 33.0 44.0 65.0
3.9889966662478624 -0.20116274741665363 1.30006339188426 60.0 77.0 75.0
-2.6773733337521373 0.06337625258334634 -1.0340366081157395 53.0 62.0 78.0
-1.1243833337521376 0.06960025258334634 4.96936339188426 31.0 46.0 68.0
-2.4564133337521374 1.4514252525833464 -2.2135866081157403 100.0 123.0 106.0
-0.22806033375213752 -0.5403947474166536 -3.4522566081157393 29.0 36.0 48.0
0.8487666662478625 -2.1307347474166534 1.309463391884261 140.0 147.0 157.0
-0.6668833337521376 -0.23539674741665367 4.269163391884261 25.0 32.0 57.0
-2.350593333752138 0.7169452525833464 0.22636339188426113 58.0 71.0 94.0
-1.9366733337521376 1.5883652525833465 4.228663391884261 127.0 159.0 112.0
-3.4398733337521374 0.0011322525833463715 -0.18443660811573892 41.0 55.0 63.0
-1.6876933337521376 0.31235425258334637 2.1808633918842606 48.0 63.0 84.0
2.790786666247863 0.6982652525833464 -1.74986660811574 68.0 79.0 69.0
-4.367313333752138 0.09761025258334632 1.8229633918842598 37.0 45.0 53.0
-0.25918333375213753 0.8538852525833462 -4.51974660811574 73.0 91.0 86.0
1.4992106662478624 -0.34404774741665367 0.9259633918842614 205.0 255.0 0.0
-2.5902333337521375 0.9410252525833462 -1.2923366081157397 59.0 73.0 88.0
0.28545566624786245 -2.1151747474166536 2.1435633918842605 89.0 112.0 113.0
-2.776973333752138 1.5012252525833463 -1.4137366081157392 106.0 130.0 115.0
-1.6098833337521377 0.3839352525833464 -1.7343066081157392 50.0 59.0 70.0
-3.3807433337521378 -0.34121174741665367 1.8789633918842608 31.0 42.0 59.0
-0.29964233375213756 0.37459525258334625 -4.270766608115739 84.0 97.0 87.0
0.35862566624786246 1.1163252525833463 3.4194633918842605 0.0 226.0 28.0
-0.2156123337521375 -0.8298307474166536 -2.714656608115739 28.0 37.0 52.0
-0.4832633337521375 -0.20427474741665363 -3.8941866081157395 40.0 44.0 64.0
-1.3048833337521375 0.8258652525833463 -4.183626608115739 82.0 109.0 77.0
2.548036666247863 0.14118225258334638 -1.6129366081157386 64.0 73.0 78.0
-3.2780333337521377 0.3777052525833464 2.4236633918842614 29.0 48.0 59.0
1.2284576662478623 -1.9813547474166537 1.427663391884261 48.0 46.0 60.0
3.2109366662478624 -0.15136674741665362 -0.22173660811573903 57.0 66.0 69.0
3.743136666247863 0.5644452525833463 0.92046339188426 73.0 89.0 80.0
-2.7365133337521375 1.7408652525833463 -1.3639366081157398 99.0 122.0 126.0
-3.125533333752138 -0.24473374741665366 1.0231633918842604 28.0 39.0 42.0
-0.9781033337521374 -0.16692774741665367 -0.8971366081157388 22.0 29.0 45.0
0.7927476662478625 -2.0342647474166538 -1.3484366081157386 31.0 41.0 48.0
-2.3225833337521378 -0.8142697474166536 3.550263391884261 14.0 27.0 42.0
0.3352506662478625 -0.9605437474166536 -0.2840366081157395 32.0 35.0 50.0
-1.8401933337521375 -1.3153367474166537 2.622763391884261 8.0 22.0 33.0
2.180796666247862 -0.49682274741665367 -2.8329266081157396 49.0 63.0 69.0
-1.2426433337521374 -2.3703847474166535 0.5127633918842598 42.0 54.0 61.0
-3.6017033337521376 0.4866352525833464 3.179863391884261 48.0 67.0 93.0
3.8271566662478627 -0.18871374741665364 1.352963391884261 60.0 77.0 76.0
1.4929966662478624 0.8663252525833463 -3.17215660811574 78.0 85.0 111.0
-3.464773333752137 0.6858252525833464 1.3810633918842612 79.0 97.0 112.0
1.6361566662478624 0.8912252525833464 4.95696339188426 62.0 70.0 40.0
0.9825926662478625 -1.1877357474166537 2.286663391884261 24.0 31.0 41.0
2.5822766662478625 1.2615752525833464 -3.19393660811574 108.0 126.0 87.0
-1.8308533337521375 1.1121952525833463 -2.11088660811574 81.0 100.0 98.0
2.9432866662478627 -0.9854417474166537 -2.58394660811574 82.0 86.0 85.0
-2.2821233337521374 -0.9200847474166536 3.628063391884261 31.0 43.0 48.0
-3.3091533337521373 0.7854152525833464 -0.038136608115738824 60.0 78.0 72.0
1.2813656662478623 -1.3775817474166536 -0.5049366081157398 34.0 35.0 42.0
-4.143233333752137 0.20031425258334634 0.9328633918842613 40.0 53.0 72.0
-3.551913333752138 0.3559252525833463 0.22946339188426101 31.0 45.0 65.0
4.066796666247862 0.5582152525833464 -0.0070366081157402505 82.0 107.0 65.0
1.2315696662478626 1.1184152525833464 -4.308116608115739 118.0 140.0 110.0
3.0522166662478627 -1.1099307474166538 -2.42521660811574 47.0 57.0 59.0
3.251396666247863 2.176575252583346 1.22536339188426 95.0 111.0 97.0
-3.716863333752138 0.8258652525833463 3.6218633918842613 59.0 74.0 87.0
-4.105883333752137 0.1972012525833463 1.088463391884261 31.0 40.0 58.0
-0.05284333375213757 -1.0679067474166537 0.8379633918842604 255.0 188.0 0.0
-3.8755833337521377 0.8632152525833463 1.2814633918842606 77.0 98.0 107.0
2.8436966662478627 -1.1597257474166538 2.7846633918842603 39.0 55.0 64.0
-0.5050533337521375 -0.5186087474166536 -3.215726608115739 27.0 38.0 42.0
2.071866666247862 0.4586252525833463 -4.118266608115739 121.0 134.0 96.0
1.8011066662478625 -1.4647237474166537 0.4504633918842611 52.0 66.0 62.0
-1.1025933337521376 0.3341392525833463 -2.5932766081157386 52.0 61.0 78.0
-2.2759033337521375 0.3714852525833463 -0.11903660811573857 38.0 50.0 72.0
-3.9907333337521376 0.6578152525833463 0.40996339188426134 76.0 88.0 88.0
3.8707266662478625 1.1184152525833464 2.60726339188426 96.0 117.0 92.0
2.389316666247862 0.37459525258334625 -3.2810866081157393 99.0 100.0 90.0
-0.8411733337521374 -0.19804974741665365 -3.37444660811574 39.0 53.0 65.0
2.2492666662478626 -0.5248327474166536 -2.8827166081157394 44.0 57.0 48.0
-2.668043333752138 0.11005925258334637 -0.965636608115739 57.0 65.0 87.0
-2.316363333752138 0.1940892525833463 4.110463391884261 57.0 72.0 107.0
0.04270266624786245 -0.11090774741665366 5.370863391884262 55.0 68.0 77.0
1.8446766662478624 1.8840252525833463 -3.52383660811574 184.0 193.0 172.0
-3.604813333752138 -0.14825474741665368 1.5241633918842599 24.0 37.0 56.0
-0.3432133337521376 1.1557652525833464 -4.76249660811574 182.0 158.0 117.0
3.6279766662478625 1.5977052525833464 0.055263391884260216 177.0 202.0 180.0
-0.4147943337521376 0.30612925258334633 5.233963391884261 29.0 49.0 73.0
1.3809566662478625 -1.9906847474166536 -1.1087366081157395 47.0 48.0 53.0
1.9131466662478624 1.8155552525833463 3.9423633918842604 139.0 162.0 139.0
-1.5943233337521374 0.3279152525833463 4.2037633918842605 27.0 40.0 73.0
-0.6482133337521376 0.12873325258334634 5.383363391884261 27.0 40.0 67.0
-3.1068633337521376 0.8071952525833463 -2.1700166081157395 88.0 104.0 121.0
2.4826866662478624 0.10383525258334636 -2.979196608115739 82.0 88.0 87.0
4.216186666247863 -0.3069777474166536 1.1164633918842615 63.0 84.0 73.0
0.17652766624786248 -0.7146788474166537 -2.46879660811574 16.0 28.0 41.0
3.1860466662478624 -0.4096807474166536 -1.0527366081157385 35.0 44.0 57.0
-1.6783533337521377 0.27500725258334635 4.371863391884261 45.0 58.0 74.0
0.20453766624786246 1.3144852525833464 -3.6140866081157395 130.0 152.0 116.0
-3.2935933337521375 -0.014428747416653676 0.5842633918842601 37.0 48.0 65.0
3.7026766662478625 -0.7146788474166537 -0.9936366081157395 54.0 67.0 64.0
-3.218903333752137 0.8756652525833464 4.639563391884261 65.0 84.0 100.0
2.3146266662478627 -0.8422797474166537 -2.9293966081157397 30.0 39.0 48.0
-2.422173333752138 0.6360252525833463 -1.95838660811574 50.0 58.0 88.0
3.8582866662478628 -0.5061597474166537 0.8052633918842602 32.0 41.0 45.0
-1.9024333337521375 -1.4118157474166537 1.3032633918842613 20.0 22.0 38.0
2.9059466662478624 -0.16692774741665367 -0.11593660811573869 58.0 67.0 73.0
2.856146666247862 0.6920452525833463 -1.6565066081157394 89.0 105.0 103.0
-2.244783333752138 0.3994952525833464 -2.2509366081157403 50.0 57.0 79.0
2.9899766662478626 0.34036425258334635 -3.6140866081157395 82.0 82.0 68.0
-4.090323333752138 0.6764852525833462 0.9982633918842598 87.0 108.0 109.0
-0.7882633337521376 -0.31631474741665366 -2.8733766081157395 43.0 53.0 62.0
-2.9170233337521374 1.2397952525833464 3.634263391884261 84.0 111.0 130.0
2.9028266662478623 -0.1264687474166537 3.42576339188426 82.0 107.0 72.0
-2.4750833337521376 -0.6337607474166537 3.98906339188426 26.0 39.0 54.0
2.495126666247862 0.5021952525833464 -3.26863660811574 81.0 89.0 81.0
-1.8650933337521376 -1.2966637474166536 2.8032633918842613 113.0 128.0 102.0
-2.8983433337521376 0.24077325258334636 4.910263391884259 46.0 58.0 71.0
-0.5579533337521376 -0.8422797474166537 -3.0476666081157386 48.0 67.0 57.0
-2.272793333752137 -0.6711076474166536 0.898663391884261 29.0 41.0 58.0
-2.7365133337521375 -0.32253874741665367 2.90286339188426 39.0 48.0 77.0
4.350016666247862 0.18164025258334637 1.44636339188426 82.0 109.0 90.0
1.3218246662478625 0.1940892525833463 -2.8017966081157386 57.0 67.0 72.0
2.9432866662478627 -1.2530927474166536 1.3467633918842612 33.0 40.0 46.0
0.20764966624786246 -0.9325337474166536 -3.3433266081157402 67.0 73.0 82.0
2.0998766662478623 1.2678052525833463 -3.122356608115739 106.0 131.0 97.0
4.869756666247862 0.24077325258334636 1.5397633918842608 37.0 49.0 56.0
-2.8890033337521377 0.2999052525833463 0.16416339188426043 54.0 69.0 72.0
-3.9347133337521374 0.9596952525833464 1.427663391884261 93.0 110.0 125.0
2.218146666247862 -1.2344187474166537 1.3032633918842613 38.0 48.0 49.0
-0.2778563337521376 0.9752552525833464 -4.479286608115739 148.0 161.0 153.0
-3.3776233337521377 0.4679652525833464 4.707963391884261 58.0 71.0 106.0
1.5863666662478624 0.9472452525833464 5.17796339188426 103.0 129.0 97.0
2.460896666247862 -1.3526837474166538 -1.7965566081157398 21.0 28.0 45.0
1.3280486662478626 1.8497952525833463 3.2701633918842603 129.0 151.0 96.0
-3.9191533337521376 0.7885252525833464 3.84276339188426 63.0 76.0 112.0
-3.4149733337521377 1.0872952525833464 3.699663391884261 107.0 135.0 149.0
1.7855466662478625 1.6319352525833464 -3.6296466081157392 162.0 179.0 130.0
2.5511466662478623 0.8227552525833464 -2.506136608115739 85.0 85.0 90.0
0.8798896662478625 0.9814852525833464 -4.046686608115739 128.0 130.0 143.0
1.7699866662478625 -0.9418707474166537 1.8509633918842603 38.0 57.0 53.0
0.28856766624786245 0.3216902525833464 5.18416339188426 35.0 49.0 58.0
-0.6264233337521374 1.3798452525833464 -4.012456608115739 100.0 110.0 91.0
-2.198093333752137 1.4514252525833464 3.9019633918842604 119.0 141.0 110.0
2.6351766662478626 -0.6804437474166537 -2.6866466081157387 59.0 76.0 63.0
-1.0403533337521376 -0.6555466374166536 2.1466633918842604 31.0 39.0 52.0
1.3062636662478626 1.6599452525833465 0.017863391884260338 106.0 130.0 80.0
-3.1722233337521377 0.8227552525833464 -1.7062966081157391 41.0 53.0 75.0
-1.5787633337521376 2.104995252583346 -0.7788366081157392 234.0 214.0 179.0
3.459916666247863 -0.6648827474166537 2.694363391884261 45.0 67.0 67.0
0.5686676662478625 -1.1752867474166537 2.29916339188426 25.0 33.0 39.0
-2.8143133337521373 -0.27585574741665364 3.27636339188426 13.0 25.0 43.0
-1.1523933337521375 0.7013852525833464 -2.618176608115739 60.0 73.0 92.0
4.430926666247863 0.13495725258334634 0.7336633918842601 72.0 91.0 78.0
-0.5953033337521376 -0.7644737474166536 -0.5236366081157389 25.0 28.0 41.0
2.9961966662478625 -1.2842147474166536 1.3063633918842612 40.0 44.0 51.0
-3.085083333752138 0.004244252583346375 4.988063391884262 44.0 56.0 70.0
-0.23739733375213756 -0.36299774741665364 4.7795633918842615 29.0 43.0 59.0
-0.4303553337521375 1.4794352525833465 -4.13071660811574 114.0 132.0 109.0
-2.9699233337521376 -0.017541747416653597 3.38836339188426 27.0 33.0 62.0
1.8820266662478624 -0.6524337974166536 -3.31531660811574 59.0 72.0 72.0
-1.3048833337521375 -1.8164047474166536 1.237863391884261 21.0 28.0 37.0
1.2346826662478625 1.3300452525833464 -3.567406608115739 95.0 105.0 92.0
-2.350593333752138 -1.0694717474166535 3.030463391884261 14.0 22.0 43.0
-2.811203333752138 -0.7955967474166536 3.20166339188426 19.0 32.0 50.0
4.107256666247863 0.15674325258334632 -0.8877366081157394 79.0 95.0 73.0
-3.841343333752138 -0.5528427474166536 1.2720633918842612 69.0 79.0 87.0
-3.0290633337521378 0.8258652525833463 -2.191806608115739 70.0 77.0 105.0
-3.337173333752138 0.5862252525833465 2.3302633918842606 43.0 59.0 77.0
-3.4211933337521376 0.6204652525833463 4.05756339188426 58.0 77.0 100.0
3.217166666247863 -0.48437474741665365 -2.07353660811574 43.0 56.0 70.0
2.4671266662478626 -1.1192667474166536 2.0501633918842614 40.0 52.0 63.0
-2.624473333752137 -0.19182574741665365 2.7099633918842603 38.0 51.0 67.0
-2.7925333337521376 -0.38478374741665367 4.44036339188426 21.0 31.0 56.0
-2.1825333337521373 -0.06422474741665363 0.08326339188426068 32.0 44.0 60.0
-0.3183153337521375 -3.0270547474166536 0.8550633918842614 55.0 49.0 60.0
2.974416666247863 -0.48437474741665365 -2.00507660811574 32.0 50.0 54.0
-2.1483033337521373 1.7221852525833465 -1.8836966081157396 93.0 113.0 116.0
-1.3951433337521375 0.6173552525833463 -2.562156608115739 80.0 92.0 106.0
2.5013566662478626 -1.1379407474166536 2.840663391884261 48.0 65.0 73.0
-3.579923333752138 0.3341392525833463 -0.12843660811573976 56.0 69.0 67.0
2.7690066662478623 0.20031425258334634 -3.27796660811574 131.0 151.0 115.0
-2.2914633337521373 -0.9512067474166537 3.4599633918842603 25.0 28.0 44.0
-2.9948233337521373 -0.6026388474166536 2.622763391884261 29.0 38.0 49.0
-0.8131633337521376 -0.13269374741665363 -2.9823066081157386 49.0 58.0 67.0
0.3290266662478625 -1.0321247474166537 -3.576746608115739 39.0 52.0 46.0
3.5563966662478625 -0.03621474741665365 1.7575633918842613 54.0 66.0 62.0
-0.7580033337521375 1.8594752525833462 0.8949633918842608 0.0 107.0 147.0
-4.077873333752137 0.02914225258334635 -0.16573660811573987 36.0 48.0 70.0
-2.9512533337521374 1.2117852525833464 3.593763391884261 90.0 112.0 137.0
-1.2021833337521375 0.7511752525833464 5.0223633918842605 88.0 104.0 103.0
-0.26540733375213754 -0.24473374741665366 4.43406339188426 33.0 45.0 55.0
-2.904573333752137 0.09761025258334632 4.87916339188426 37.0 51.0 62.0
-2.8205433337521377 1.0188252525833463 -2.2913966081157398 64.0 69.0 98.0
-0.8131633337521376 -0.21049874741665364 4.683063391884259 33.0 46.0 56.0
0.07071266624786249 -0.5964136474166537 -3.5082766081157395 46.0 55.0 67.0
-0.6606633337521375 -0.9449827474166537 -3.1192466081157395 66.0 79.0 84.0
2.5822766662478625 -1.1472767474166536 1.7202633918842611 33.0 38.0 46.0
1.7575366662478624 -0.31631474741665366 -3.548736608115739 53.0 65.0 65.0
1.3778446662478625 0.1878652525833463 4.9289633918842615 51.0 58.0 63.0
-0.4645893337521375 -3.5250147474166535 1.2067633918842606 20.0 27.0 45.0
1.8011066662478625 -0.18871374741665364 -3.539396608115739 64.0 77.0 72.0
-0.5423933337521376 0.7978552525833464 -2.94496660811574 47.0 57.0 59.0
-2.2821233337521374 0.5426552525833463 -2.4719066081157397 55.0 64.0 83.0
-1.0030033337521376 -0.8080447474166537 2.1061633918842606 35.0 43.0 56.0
-1.9864633337521374 -0.5652917474166537 0.033463391884261284 52.0 55.0 68.0
-3.6017033337521376 1.3175952525833463 3.95176339188426 103.0 118.0 119.0
2.1901366662478625 -0.12958174741665363 -1.9552766081157387 21.0 28.0 46.0
1.8509066662478624 1.4265252525833463 -3.2561866081157387 162.0 191.0 132.0
3.4007866662478623 -0.8702897474166537 -1.4231366081157386 49.0 50.0 55.0
0.3010166662478625 -0.28830474741665363 -0.9967366081157394 37.0 41.0 57.0
2.8685966662478624 1.2833652525833463 -1.58183660811574 104.0 122.0 105.0
-3.894253333752138 0.49286525258334635 1.798063391884261 50.0 62.0 88.0
-3.9907333337521376 0.6080152525833464 2.579263391884261 71.0 90.0 100.0
3.5750666662478627 -0.7551377474166536 0.9546633918842602 41.0 49.0 52.0
-1.7094733337521377 1.4981052525833463 3.6062633918842604 115.0 142.0 140.0
0.039589666247862476 -0.8391677474166537 2.3146633918842614 21.0 28.0 52.0
-2.4315133337521377 -0.23228474741665367 -0.595236608115739 32.0 40.0 53.0
-3.1722233337521377 0.3185782525833464 4.58036339188426 57.0 72.0 97.0
-2.4003933337521373 0.3777052525833464 -2.076656608115739 41.0 49.0 67.0
-0.02576633375213755 -0.3038657474166537 -3.43980660811574 48.0 57.0 69.0
-0.9905533337521375 0.27811925258334635 -1.0869366081157388 48.0 57.0 72.0
-0.2436223337521375 1.1464252525833463 -4.146276608115739 126.0 144.0 110.0
1.3124876662478626 1.9244852525833462 3.145663391884261 55.0 64.0 69.0
1.2595796662478624 -1.3993667474166536 -3.1752666081157397 51.0 71.0 59.0
-2.932583333752137 -0.05800074741665362 3.54086339188426 24.0 36.0 62.0
-3.9720633337521374 -0.24784574741665366 2.38316339188426 20.0 27.0 44.0
2.532476666247862 0.2594462525833463 -2.8671566081157387 59.0 72.0 63.0
-0.11290833375213749 0.20031425258334634 5.352263391884259 62.0 80.0 80.0
3.5283866662478625 -0.7987087474166537 -2.37542660811574 41.0 45.0 52.0
-0.20316333375213758 -1.1752867474166537 2.660163391884261 15.0 23.0 40.0
-0.8162733337521375 0.4088352525833463 -3.8692966081157394 42.0 54.0 54.0
1.9536066662478624 -0.6773317474166537 -2.49991660811574 28.0 44.0 51.0
-3.9627233337521375 -0.1202447474166537 2.56676339188426 30.0 47.0 65.0
2.411096666247863 -0.9387587474166537 0.3633633918842598 37.0 42.0 48.0
-4.504253333752137 0.20965025258334635 -0.25603660811573903 38.0 52.0 74.0
-4.0343033337521375 0.0011322525833463715 1.0013633918842615 27.0 38.0 48.0
3.8458366662478625 -0.6493217674166537 -2.456346608115739 55.0 66.0 66.0
-2.7271733337521376 0.8040852525833464 -1.9179266081157387 36.0 48.0 53.0
2.619616666247863 0.5644452525833463 -1.9428266081157393 61.0 72.0 71.0
0.21698666624786245 0.022917252583346315 5.093863391884261 45.0 56.0 62.0
0.04270266624786245 -1.6296707474166536 0.41626339188426087 51.0 60.0 57.0
3.273186666247862 -0.9138607474166536 2.56676339188426 43.0 52.0 58.0
1.6952866662478625 2.1205552525833467 -0.330736608115739 186.0 209.0 173.0
0.04892666624786246 -0.30075374741665367 2.8904633918842606 25.0 38.0 57.0
1.6486066662478625 1.4420852525833465 -2.8733766081157395 68.0 90.0 69.0
0.12984466624786245 -1.2157457474166535 -3.3775566081157393 26.0 39.0 46.0
3.559506666247862 1.4887752525833464 2.211963391884261 149.0 173.0 140.0
-0.9252033337521375 -0.8951877474166536 1.872763391884261 16.0 22.0 42.0
2.6694166662478622 1.1775552525833464 -1.7280866081157402 86.0 92.0 75.0
-2.163863333752137 0.9347952525833463 4.944563391884261 135.0 160.0 154.0
-2.372383333752137 0.8103052525833463 -0.9718366081157388 63.0 72.0 102.0
-2.8205433337521377 0.6391352525833462 -1.6253766081157401 45.0 57.0 87.0
2.7690066662478623 0.34036425258334635 -3.4709266081157395 160.0 166.0 125.0
-2.5030933337521377 1.1464252525833463 -1.1087366081157395 72.0 69.0 94.0
1.9598266662478625 -0.3100897474166536 -3.57362660811574 40.0 51.0 53.0
-3.7822133337521375 -0.17003974741665367 0.9452633918842608 25.0 32.0 54.0
2.3924266662478626 -0.8453917474166537 -0.6014366081157387 35.0 45.0 52.0
-2.8049733337521374 0.02602925258334632 2.42046339188426 53.0 74.0 104.0
-0.9532033337521375 0.6173552525833463 -2.9978666081157392 71.0 84.0 106.0
-3.987623333752138 1.1121952525833463 1.6891633918842608 88.0 107.0 104.0
2.678756666247862 -1.0539107474166536 2.2026633918842613 101.0 120.0 130.0
2.3550866662478622 1.1090852525833463 -2.4968066081157385 82.0 91.0 89.0
-1.3039733337521375 -0.5517666474166536 1.057963391884261 238.0 255.0 0.0
-2.9512533337521374 -0.0860107474166536 3.0616633918842613 52.0 63.0 90.0
1.4774356662478625 0.5115352525833463 4.851163391884262 81.0 102.0 90.0
4.306446666247862 0.27811925258334635 0.058363391884260096 82.0 91.0 81.0
1.2004476662478625 1.3736252525833466 -4.19607660811574 175.0 197.0 130.0
-3.623493333752138 -0.026877747416653608 0.9515633918842603 39.0 53.0 57.0
0.5624426662478624 -1.6265587474166536 1.8353633918842611 113.0 137.0 115.0
-2.1389633337521374 -1.1877357474166537 0.22636339188426113 26.0 35.0 40.0
-3.4678833337521375 0.08204925258334639 1.0542633918842608 50.0 63.0 71.0
-3.0446233337521376 1.2615752525833464 3.550263391884261 116.0 141.0 159.0
1.6672766662478624 0.5768952525833464 4.897863391884259 63.0 71.0 82.0
-3.464773333752137 0.30301725258334633 -0.27783660811573974 59.0 75.0 76.0
3.0117566662478623 1.5852552525833465 -2.067316608115739 138.0 149.0 121.0
-0.40856933375213755 -0.03932674741665365 4.720463391884261 43.0 53.0 62.0
-0.09930933375213757 1.0660752525833463 4.034963391884261 0.0 234.0 20.0
-1.3515733337521376 0.1878652525833463 5.000563391884262 54.0 65.0 91.0
2.865486666247863 -1.1721747474166535 2.4827633918842604 55.0 59.0 65.0
1.5925866662478625 0.03847825258334636 -2.428336608115739 64.0 71.0 81.0
4.241086666247862 -0.21361074741665365 0.37266339188426123 54.0 66.0 66.0
-1.8526433337521377 0.7791852525833463 -2.2633866081157397 66.0 81.0 93.0
-3.2375733337521373 0.9161252525833463 5.012963391884261 64.0 88.0 112.0
-4.236603333752138 0.6266852525833464 2.0283633918842607 78.0 100.0 89.0
1.1973356662478625 0.6298052525833464 -3.863066608115739 62.0 73.0 76.0
1.8384566662478625 -0.2851927474166536 -2.6866466081157387 55.0 60.0 75.0
-3.0446233337521376 0.7978552525833464 -1.7000766081157401 38.0 45.0 69.0
-2.269673333752138 -1.1348277474166537 0.18906339188426102 81.0 115.0 99.0
0.2636696662478625 -1.2779907474166536 -2.6679766081157386 25.0 33.0 44.0
-1.6908033337521375 2.1547852525833466 -1.3888366081157386 177.0 188.0 160.0
-2.7645233337521375 0.43061525258334643 -1.43553660811574 35.0 45.0 50.0
2.691196666247863 -1.0663597474166537 -0.6325366081157391 44.0 54.0 53.0
3.182936666247863 -0.5590676474166536 -1.54753660811574 40.0 46.0 49.0
-0.9843333337521376 -0.26963074741665366 -1.1087366081157395 31.0 41.0 53.0
-3.916043333752138 0.2252112525833464 1.0573633918842607 36.0 52.0 66.0
1.1786626662478623 -2.0778347474166536 -1.1056366081157396 42.0 44.0 50.0
2.1839066662478626 1.3985152525833462 -0.5392366081157398 110.0 139.0 115.0
3.2700766662478626 2.2357052525833465 0.42246339188426063 131.0 161.0 139.0
0.45351566624786244 2.0365252525833464 -3.9751066081157393 145.0 151.0 120.0
2.613396666247862 -1.3153367474166537 1.48066339188426 32.0 36.0 44.0
-0.9065233337521375 -0.34432474741665364 -0.965636608115739 42.0 53.0 62.0
1.6952866662478625 -0.8765137474166537 -2.81424660811574 70.0 79.0 85.0
3.064666666247862 -0.5403947474166536 -3.6981166081157397 81.0 82.0 67.0
3.382116666247862 -0.45325174741665364 -1.9148166081157392 75.0 89.0 83.0
2.8685966662478624 0.0447032525833464 3.481763391884261 63.0 72.0 69.0
-2.8143133337521373 1.9587152525833462 -1.9739466081157389 115.0 133.0 142.0
-0.6824433337521376 -3.104864747416654 0.9484633918842604 51.0 50.0 55.0
2.6538566662478624 -0.5684037474166537 3.4942633918842603 60.0 91.0 73.0
-3.3776233337521377 0.23766025258334633 -0.019436608115739773 33.0 46.0 63.0
1.5241186662478625 2.634065252583347 0.7243633918842605 193.0 215.0 185.0
-3.390073333752137 0.6827052525833464 -0.038136608115738824 56.0 69.0 59.0
-0.6046433337521375 -1.6390077474166538 1.7887633918842614 24.0 25.0 42.0
-1.1990733337521375 0.1131722525833464 -0.6730366081157388 34.0 43.0 64.0
-3.866243333752138 0.9192352525833463 3.1923633918842604 61.0 77.0 95.0
-3.1504333337521375 0.5924552525833464 -1.78721660811574 32.0 42.0 67.0
-2.8921233337521377 -0.4812617474166536 2.2430633918842613 21.0 27.0 49.0
3.6591066662478626 0.3932752525833463 -1.2021366081157385 76.0 92.0 86.0
2.448446666247863 0.9503552525833463 -1.88058660811574 71.0 89.0 77.0
1.0852956662478626 -1.0943697474166536 -2.37542660811574 28.0 39.0 43.0
-3.586143333752138 0.48352525258334644 4.43726339188426 58.0 71.0 82.0
-2.3225833337521378 0.5146452525833463 -2.1139966081157393 48.0 58.0 63.0
3.0957866662478626 -1.0103397474166536 2.846863391884261 36.0 49.0 60.0
-3.3776233337521377 0.4057152525833463 1.6891633918842608 57.0 71.0 82.0
2.0345266662478627 0.8289852525833463 -4.264546608115739 143.0 171.0 108.0
-2.9699233337521376 -0.6991178474166536 2.470263391884261 14.0 25.0 43.0
2.965076666247862 -1.0072267474166536 2.8126633918842607 56.0 65.0 57.0
-1.0870333337521376 0.4586252525833463 -2.70843660811574 59.0 67.0 87.0
-2.5808933337521376 -0.33498774741665366 0.39446339188426016 41.0 50.0 66.0
0.17341566624786248 -2.5571147474166533 1.913163391884261 37.0 51.0 55.0
1.3342736662478625 -0.15759174741665366 -2.4501166081157386 22.0 30.0 51.0
-4.158793333752138 0.0478152525833464 1.5584633918842599 35.0 48.0 60.0
-1.8215133337521376 -0.6493217674166537 0.13926339188425985 41.0 48.0 57.0
2.9059466662478624 -0.9698807474166536 -2.6741966081157393 55.0 58.0 57.0
-0.9500933337521376 1.5852552525833465 -3.79770660811574 106.0 127.0 102.0
4.1259366662478625 0.14118225258334638 -2.46879660811574 111.0 129.0 106.0
2.9432866662478627 -0.09845874741665361 1.502363391884261 59.0 70.0 72.0
-4.395323333752137 0.30924125258334634 -0.3493366081157401 45.0 56.0 56.0
1.8260066662478625 1.5292352525833464 -3.2561866081157387 116.0 143.0 78.0
1.3249366662478623 -0.9761047474166537 -2.590166608115739 41.0 44.0 57.0
-0.5423933337521376 -3.8051147474166536 0.8208633918842612 44.0 53.0 48.0
-2.4252833337521373 0.7044952525833463 -2.160686608115739 53.0 65.0 77.0
2.3706466662478625 -1.3838057474166536 1.8447633918842605 100.0 126.0 111.0
2.9681866662478624 -0.28207974741665365 -3.11613660811574 106.0 129.0 114.0
4.191286666247862 -0.41901774741665365 1.7358633918842603 42.0 54.0 50.0
-2.2821233337521374 -0.7955967474166536 3.410163391884261 82.0 94.0 86.0
-3.2749233337521373 0.1940892525833463 1.7606633918842611 32.0 44.0 65.0
-3.085083333752138 0.8258652525833463 5.050363391884259 75.0 97.0 106.0
0.08627366624786248 0.6391352525833462 -3.05077660811574 63.0 69.0 88.0
1.3404976662478625 0.9659152525833463 -3.330876608115739 65.0 78.0 87.0
-1.6534533337521375 0.0540392525833463 -0.1377366081157394 32.0 39.0 55.0
2.423546666247862 -0.5901898474166537 -2.7613466081157387 39.0 51.0 51.0
4.007666666247863 0.5862252525833465 -0.05993660811573953 101.0 127.0 92.0
2.2119166662478627 0.8258652525833463 4.402963391884262 96.0 123.0 72.0
-3.959613333752138 0.10072325258334636 2.395563391884261 64.0 76.0 80.0
1.9878366662478624 -1.2842147474166536 -0.2995366081157389 92.0 109.0 109.0
-2.487533333752138 1.0655152525833465 0.005463391884260815 85.0 98.0 115.0
3.7026766662478625 1.8186652525833462 0.49406339188426074 84.0 96.0 89.0
-0.7073433337521375 -0.026877747416653608 -3.3464366081157397 71.0 76.0 79.0
-2.9574733337521373 -0.14825474741665368 -0.1377366081157394 31.0 39.0 50.0
0.27611866624786247 -2.8123147474166537 1.5397633918842608 44.0 55.0 56.0
0.8083086662478625 -1.0694717474166535 -3.0134366081157395 51.0 65.0 63.0
-4.370423333752138 0.4524052525833464 1.8820633918842606 35.0 48.0 71.0
0.07693666624786244 -0.9387587474166537 2.765963391884261 57.0 75.0 86.0
2.790786666247863 0.5146452525833463 -1.7592066081157398 72.0 78.0 74.0
-0.13780633375213758 -0.5870778474166537 3.556463391884261 21.0 31.0 56.0
2.971296666247863 1.3456152525833462 -0.5672366081157385 104.0 130.0 72.0
3.883176666247863 -0.38167074741665363 1.1973633918842612 37.0 52.0 46.0
4.185066666247862 0.30301725258334633 -2.437666608115739 101.0 116.0 77.0
3.5719566662478623 -0.4625887474166537 1.0417633918842615 58.0 68.0 67.0
2.252376666247862 1.5354552525833463 -0.4427366081157391 111.0 137.0 104.0
0.6122386662478625 -1.8350747474166536 0.6371633918842612 41.0 40.0 48.0
1.4369766662478625 1.7470852525833462 3.179863391884261 107.0 133.0 78.0
-0.07244933375213758 0.8632152525833463 3.699663391884261 36.0 48.0 60.0
-2.4377333337521376 -0.45636474741665367 3.01806339188426 28.0 39.0 50.0
0.21698666624786245 -1.1939607474166536 -3.3495466081157392 52.0 66.0 62.0
-4.043643333752137 -0.17003974741665367 2.283563391884261 26.0 38.0 64.0
-0.3432133337521376 -0.7209028474166537 -3.44914660811574 29.0 40.0 52.0
0.5126476662478625 -0.04555174741665369 5.243263391884261 37.0 56.0 63.0
-0.16270433375213755 -0.9667687474166536 -3.4086866081157385 46.0 57.0 62.0
-1.1368333337521375 -0.7769227474166537 1.6019633918842597 27.0 36.0 53.0
-2.107843333752138 1.9960652525833462 -1.118136608115739 110.0 130.0 132.0
3.4007866662478623 0.40260525258334634 2.8250633918842603 103.0 125.0 74.0
3.6559866662478626 0.35281225258334636 2.2586633918842605 106.0 116.0 97.0
-3.723083333752138 0.45551525258334635 2.4453633918842606 49.0 64.0 72.0
2.327076666247862 1.6692852525833464 -1.4573366081157388 98.0 99.0 89.0
3.2109366662478624 -0.4812617474166536 0.08636339188426057 40.0 51.0 53.0
-0.5268333337521376 0.09138625258334632 -4.105816608115739 42.0 55.0 52.0
-0.4583653337521375 0.5488852525833463 5.448663391884262 56.0 81.0 89.0
-0.6155733337521376 1.2686152525833463 1.6533633918842607 0.0 201.0 53.0
-3.993843333752138 0.8383152525833464 3.1518633918842607 60.0 76.0 105.0
-3.807113333752138 1.0157152525833464 1.2160633918842603 59.0 78.0 97.0
0.7709616662478624 -0.4283547474166537 -3.6701066081157396 59.0 70.0 75.0
1.4867716662478625 -1.9813547474166537 -1.0994366081157398 84.0 100.0 89.0
-0.1471433337521375 1.1837752525833463 -4.631786608115739 90.0 102.0 65.0
2.2679366662478624 -0.7177908474166537 -3.4055666081157394 26.0 35.0 44.0
0.14540566624786244 -0.04866374741665369 -3.446026608115739 60.0 74.0 79.0
0.18897666624786247 -0.9823297474166537 0.1703633918842602 27.0 37.0 46.0
-2.4626333337521373 -0.49682274741665367 4.17266339188426 32.0 41.0 64.0
-2.0580433337521375 -1.0632467474166536 0.23266339188426066 19.0 26.0 42.0
2.650746666247862 -1.3371227474166536 2.8188633918842605 42.0 54.0 62.0
-3.8724733337521373 0.6982652525833464 3.780563391884261 74.0 89.0 110.0
-3.6110433337521375 0.2252112525833464 -0.1377366081157394 42.0 51.0 59.0
-0.5744233337521376 1.2148852525833465 0.491663391884261 0.0 210.0 44.0
-1.8806533337521374 0.36837525258334636 0.16726339188426032 46.0 58.0 58.0
4.163276666247863 0.24077325258334636 -2.37542660811574 93.0 104.0 92.0
-1.8308533337521375 -1.2748777474166535 2.7472633918842604 71.0 92.0 91.0
-4.040533333752138 0.8663252525833463 1.8976633918842598 70.0 89.0 111.0
0.6371366662478625 -0.8578407474166536 -3.530056608115739 90.0 99.0 126.0
1.9940666662478626 -0.36610974741665364 -2.2540466081157398 20.0 28.0 51.0
3.4723666662478623 -0.49993574741665364 -2.3723166081157387 40.0 54.0 55.0
3.6591066662478626 -0.9014117474166536 0.8799633918842602 37.0 42.0 48.0
-0.9718833337521375 -2.4917547474166537 0.6714633918842612 46.0 45.0 56.0
