1.144388666791409 1.0828616851914235 -1.852417408597601 156.0 145.0 171.0
-0.09869633320859107 -3.2688683148085764 -0.6607174085976002 91.0 58.0 47.0
0.2602586667914089 1.7314416851914234 2.5101825914023994 128.0 142.0 153.0
-0.24088733320859107 -3.5152883148085765 -0.1884174085975996 111.0 70.0 48.0
0.7507246667914089 -0.17233831480857664 -0.3874174085976012 201.0 127.0 132.0
1.405758666791409 -0.10780331480857663 -0.8843174085975996 180.0 162.0 149.0
-1.165961333208591 0.29231168519142325 0.14178259140240002 188.0 178.0 171.0
1.763918666791409 -0.2336473148085767 1.7680825914023988 242.0 158.0 185.0
0.9152886667914089 1.8056616851914233 -0.3584174085976013 197.0 115.0 143.0
5.4133786667914086 3.0221416851914236 0.8032825914024002 125.0 147.0 191.0
-1.901661333208591 0.6375716851914234 0.5837825914024002 98.0 88.0 83.0
1.002408666791409 2.2348116851914233 -0.4745174085976007 136.0 164.0 208.0
-0.9529993332085911 -2.2535883148085767 -0.8811174085975999 67.0 60.0 49.0
-0.6851793332085911 -3.1151383148085765 -0.7488174085976009 163.0 121.0 94.0
-1.756461333208591 -0.7305664148085766 -0.3390174085976003 73.0 59.0 55.0
-0.7685083332085911 -3.6637983148085764 0.3716825914023989 123.0 109.0 88.0
1.454158666791409 2.5478116851914234 -0.6681174085976007 104.0 102.0 101.0
0.528078666791409 1.4829816851914233 -1.6103174085976004 103.0 32.0 43.0
2.6448286667914087 1.8088816851914236 -2.020117408597601 150.0 170.0 211.0
1.721978666791409 2.4865016851914237 -1.2231174085976004 143.0 88.0 117.0
0.39255466679140893 -0.9951603148085766 -0.12281740859759971 106.0 78.0 67.0
0.6313346667914088 -0.22396631480857665 -1.1780174085976007 140.0 75.0 81.0
3.393428666791409 1.6798116851914235 0.9968825914024002 148.0 173.0 207.0
-0.07209733320859107 -4.744638314808577 -0.05181740859759998 69.0 55.0 38.0
-0.24057833320859107 -1.8409183148085768 -0.09061740859760015 145.0 47.0 52.0
-0.2108473332085911 -5.170578314808576 0.15148259140239873 36.0 18.0 17.0
-0.017242333208591074 -4.912438314808576 -0.15191740859760117 61.0 48.0 32.0
1.3186286667914089 1.6540016851914237 -1.8943174085976011 168.0 70.0 83.0
0.7539506667914089 1.3119616851914233 -1.494217408597601 151.0 180.0 213.0
-0.25279533320859104 -4.996328314808577 0.3901825914024002 109.0 101.0 78.0
-1.191781333208591 -1.0145203148085766 -1.0650174085976012 132.0 109.0 90.0
-2.6664013332085914 0.5052816851914234 -0.7359174085976008 87.0 42.0 36.0
-0.015656333208591076 -3.0299183148085764 -0.5794174085975996 171.0 154.0 132.0
-2.2404713332085913 1.7056316851914235 -2.1750474085976013 125.0 54.0 62.0
0.641014666791409 -2.8311783148085765 1.1291825914023992 150.0 136.0 90.0
-0.9013713332085911 1.4700816851914236 -1.5103174085976008 179.0 177.0 218.0
2.083368666791409 2.2961216851914235 1.5389825914023998 194.0 109.0 131.0
-1.530591333208591 -0.01100131480857669 -1.1328174085976013 172.0 160.0 141.0
2.877148666791409 2.0702516851914234 -1.5619174085976013 137.0 165.0 208.0
0.1860426667914089 -3.5346083148085765 -0.14861740859759998 75.0 70.0 45.0
0.2247636667914089 0.42461168519142334 1.5518825914024 151.0 56.0 66.0
-0.007562333208591079 -2.2923083148085768 0.7160825914023992 72.0 53.0 36.0
-1.030441333208591 0.9763816851914234 2.1519825914023993 146.0 95.0 117.0
2.0446486667914088 2.2638616851914235 -1.1167174085975997 152.0 162.0 193.0
-0.2940083332085911 -4.3875683148085765 -0.21951740859759994 139.0 94.0 64.0
2.202758666791409 1.3668216851914234 -1.2005174085975998 117.0 158.0 179.0
1.963978666791409 1.8701916851914233 1.242082591402399 163.0 76.0 92.0
0.579706666791409 1.6023716851914234 -1.6394174085976 84.0 29.0 42.0
-2.1017213332085913 1.9799016851914235 1.0000825914023999 252.0 238.0 239.0
2.157588666791409 2.4219716851914233 1.3065825914023996 143.0 167.0 208.0
-1.288581333208591 0.46656168519142327 -1.2489174085976007 225.0 153.0 178.0
0.41836866679140894 -4.234818314808577 0.8258825914023991 169.0 154.0 124.0
0.473223666791409 -2.098708314808577 -0.32931740859759984 100.0 82.0 57.0
3.0578486667914087 1.7572616851914233 -1.5652174085976007 142.0 166.0 207.0
-2.1017213332085913 1.6314116851914235 0.922682591402399 254.0 255.0 255.0
0.8040706667914088 -1.5083863148085768 1.3843825914023995 123.0 75.0 63.0
-0.8209683332085911 -3.1271183148085764 0.38898259140239944 169.0 147.0 116.0
-0.7819823332085911 -1.7598993148085766 0.5676825914024004 52.0 51.0 40.0
0.7668576667914089 1.0764116851914234 -0.6036174085976 159.0 177.0 212.0
-0.007562333208591079 -4.944698314808576 -0.18731740859760038 54.0 43.0 29.0
-0.21384933320859106 -2.1015783148085765 -0.11551740859760073 176.0 157.0 138.0
1.370258666791409 -1.0726023148085766 0.06428259140239945 122.0 65.0 75.0
0.34738066679140894 2.0863816851914234 2.6456825914024 255.0 254.0 254.0
0.6087476667914089 0.7505116851914234 0.07078259140240029 220.0 98.0 127.0
1.3154086667914089 -1.1306833148085766 0.2062825914023989 227.0 133.0 165.0
-2.3211413332085913 2.1444716851914234 -2.365417408597601 255.0 255.0 255.0
2.8111186667914088 0.7441916851914233 0.883082591402399 177.0 188.0 203.0
1.5090086667914089 2.9898716851914235 -0.8198174085976007 84.0 92.0 124.0
1.389618666791409 -1.1952183148085767 0.6515825914024003 147.0 120.0 99.0
0.6571486667914088 0.06644068519142332 1.3485825914023994 136.0 106.0 100.0
1.095988666791409 0.16646968519142336 -0.18731740859760038 149.0 126.0 118.0
0.8281666667914089 -2.1761483148085765 0.29018259140239877 65.0 64.0 55.0
-0.2850623332085911 -5.047958314808577 0.370882591402399 81.0 64.0 41.0
1.115348666791409 2.4251916851914235 -2.6558274085976006 88.0 28.0 36.0
0.6603756667914089 -1.2307123148085766 -0.46811740859759965 64.0 47.0 33.0
3.732238666791409 1.9573116851914234 1.1484825914024004 100.0 35.0 70.0
2.9449186667914087 2.2283616851914236 -1.6039174085976011 169.0 134.0 169.0
0.937878666791409 -2.0051283148085766 0.3901825914024002 112.0 98.0 77.0
0.17958966679140892 -5.222198314808576 -0.20351740859759992 121.0 134.0 107.0
-2.043641333208591 -0.6047233148085767 -0.3551174085976001 127.0 50.0 54.0
2.1414486667914088 2.0799316851914234 -2.0782174085976006 201.0 185.0 219.0
0.26993866679140893 -5.093128314808577 0.5837825914024002 125.0 141.0 54.0
0.6603756667914089 0.8247216851914233 0.11598259140239975 247.0 153.0 181.0
-0.9013713332085911 -4.267088314808577 0.05468259140239873 75.0 53.0 29.0
1.760698666791409 0.42461168519142334 0.7774825914024 113.0 48.0 53.0
-2.2888713332085913 2.5929816851914236 -0.43261740859760067 254.0 254.0 254.0
2.389908666791409 0.26004168519142346 0.8935825914023994 181.0 139.0 124.0
2.8839886667914088 0.8204516851914233 0.9881825914023992 105.0 70.0 59.0
-0.37218433320859107 -4.8220883148085765 -0.4358174085976003 162.0 132.0 107.0
-0.38186533320859106 -3.3894083148085765 0.4869825914024002 112.0 95.0 79.0
-0.17212633320859105 -5.083448314808576 0.20308259140239926 70.0 58.0 43.0
-0.572243333208591 -2.8795783148085765 0.5902825914023992 49.0 47.0 36.0
0.7733116667914088 -0.9854793148085766 -0.5358174085976 33.0 37.0 31.0
0.13764166679140893 -5.025368314808577 0.5128825914024002 66.0 51.0 34.0
-1.114341333208591 1.1506316851914233 0.19018259140239913 159.0 185.0 214.0
4.409858666791409 2.7543216851914236 1.5195825914023988 103.0 27.0 47.0
-1.995241333208591 1.2313016851914234 -1.716817408597601 164.0 181.0 217.0
0.7216836667914088 1.8701916851914233 -2.1750474085976013 93.0 86.0 123.0
-2.763211333208591 -0.06585631480857668 0.6547825914023999 184.0 137.0 156.0
-2.1436713332085913 1.0731916851914232 0.661282591402399 231.0 218.0 222.0
-2.759981333208591 0.6601616851914233 -0.6326174085976 125.0 123.0 117.0
1.525148666791409 0.1342026851914233 2.568282591402399 213.0 118.0 153.0
0.7120036667914089 0.7956916851914234 0.08368259140240042 198.0 108.0 128.0
2.2253486667914086 2.0831616851914236 -2.1621374085975997 170.0 173.0 205.0
-2.250151333208591 1.8637416851914232 -1.8782174085975996 254.0 254.0 254.0
-0.43349333320859107 -5.051188314808576 0.2159825914023994 82.0 51.0 41.0
1.680028666791409 0.3729816851914233 0.854882591402399 169.0 71.0 100.0
-2.763211333208591 2.6736516851914236 -2.2073074085976003 255.0 255.0 255.0
4.138808666791409 3.5900516851914235 1.7163825914024002 123.0 136.0 188.0
-0.19148633320859107 -4.115428314808577 0.18048259140240042 79.0 63.0 45.0
-3.295621333208591 2.1476916851914236 -1.1167174085975997 254.0 254.0 254.0
-1.617711333208591 0.4794616851914234 2.7392825914024 98.0 36.0 46.0
-2.8535513332085913 1.0118816851914234 -0.5455174085976005 119.0 31.0 51.0
0.25703166679140893 2.4187416851914234 2.8328825914023987 148.0 79.0 102.0
0.41514266679140893 -1.4178643148085768 -0.8714174085976012 79.0 64.0 62.0
-0.7593943332085911 -3.7992083148085767 0.2675825914023999 120.0 110.0 80.0
0.3183396667914089 -4.960838314808576 0.5579825914023999 174.0 149.0 95.0
0.8507536667914088 -1.7889403148085767 0.07398259140239993 184.0 191.0 175.0
-2.1920713332085913 1.9315016851914235 -2.142817408597601 175.0 205.0 242.0
0.3022056667914089 -4.7155983148085765 0.5837825914024002 175.0 158.0 132.0
0.3054326667914089 2.1444716851914234 2.7683825914024 254.0 254.0 254.0
1.754248666791409 0.0438536851914233 -1.2586174085976012 141.0 157.0 151.0
2.551248666791409 2.0767016851914235 -1.8298174085976004 129.0 164.0 209.0
2.3416786667914087 0.20019168519142327 0.8966825914023993 125.0 110.0 89.0
0.8120326667914088 1.6540016851914237 -2.0556174085976 98.0 32.0 59.0
-0.23946233320859106 -2.203848314808577 -0.1560174085976005 176.0 129.0 135.0
-0.4722143332085911 -4.083158314808577 0.4708825914024004 89.0 77.0 47.0
-1.972651333208591 1.6281916851914233 0.8451825914024003 172.0 182.0 203.0
-0.4754403332085911 -3.9863583148085766 0.4999825914024001 98.0 98.0 68.0
1.247648666791409 2.4606916851914233 -0.6423174085976004 207.0 125.0 161.0
-0.42058633320859107 -4.244498314808577 -0.2132174085976004 84.0 95.0 75.0
-0.22832733320859108 -4.467038314808577 -0.2420174085976008 97.0 92.0 68.0
-2.0307313332085912 1.5701116851914234 0.8742825914024 210.0 213.0 214.0
-2.3759913332085913 0.0987086851914234 -0.5617174085976 186.0 120.0 129.0
2.0446486667914088 1.4249016851914234 -1.9427174085976002 133.0 102.0 121.0
-3.166551333208591 2.2283616851914236 -1.2748174085976007 227.0 232.0 236.0
-2.4244013332085914 0.1471096851914233 -0.4229174085976002 153.0 75.0 90.0
4.222708666791409 3.5061516851914236 1.6518825914023996 132.0 154.0 188.0
-0.09468433320859107 -2.5310883148085765 0.6160825914023995 42.0 22.0 18.0
0.605520666791409 1.6862716851914237 -1.9201174085975996 146.0 53.0 73.0
-1.572531333208591 0.06321368519142334 -1.3167174085976008 95.0 67.0 47.0
-2.453441333208591 0.15678968519142333 -0.7101174085976005 71.0 56.0 43.0
0.015025666791408931 2.2219116851914236 2.6069825914023994 254.0 254.0 254.0
-1.407971333208591 0.001905685191423312 -1.2748174085976007 102.0 91.0 83.0
0.14732166679140893 -1.3888233148085767 -0.00021740859760122078 71.0 67.0 42.0
-2.559921333208591 0.4891416851914233 -0.8488174085976006 124.0 116.0 140.0
0.918515666791409 2.5349016851914237 -0.46811740859759965 142.0 165.0 209.0
1.734878666791409 3.2060716851914233 -0.46811740859759965 164.0 139.0 184.0
-2.479251333208591 0.47301168519142334 -0.7520174085976006 237.0 188.0 203.0
-0.3528243332085911 -4.957608314808576 0.2062825914023989 40.0 45.0 32.0
1.515468666791409 1.0635116851914233 -0.5939174085975996 146.0 156.0 181.0
-1.643521333208591 0.9215316851914234 0.29988259140239926 186.0 178.0 198.0
0.899154666791409 0.8311816851914234 -1.4780174085975997 161.0 159.0 168.0
0.2473516667914089 -1.1952183148085767 -0.09051740859760038 78.0 61.0 47.0
1.5541886667914089 2.8027216851914236 -0.9295174085976008 159.0 157.0 197.0
-2.285651333208591 1.8734216851914236 -2.129917408597601 166.0 69.0 88.0
2.4415386667914087 1.3345516851914234 -1.3361174085976 130.0 83.0 84.0
3.8290486667914085 1.9799016851914235 1.0032825914023995 117.0 41.0 61.0
-2.453441333208591 1.8734216851914236 -2.1073174085976003 254.0 254.0 253.0
-0.36895833320859106 -5.1286283148085765 -0.5132174085976011 129.0 77.0 47.0
2.4673586667914087 1.6669116851914234 -1.2199174085976008 102.0 28.0 48.0
1.3154086667914089 0.9183016851914233 -0.9747174085976003 118.0 108.0 107.0
1.538048666791409 0.7634216851914234 -0.4455174085976008 83.0 36.0 46.0
0.8539806667914089 0.07289468519142339 -1.0295174085976004 89.0 41.0 48.0
4.122678666791408 1.7992016851914236 1.0452825914023993 152.0 171.0 209.0
0.37319466679140895 2.2315916851914235 -1.6555174085975999 142.0 143.0 178.0
-1.8145413332085911 1.8443816851914234 -0.3261174085976002 211.0 137.0 183.0
-2.121081333208591 1.9669916851914233 0.9322825914023998 89.0 33.0 41.0
2.6448286667914087 1.8701916851914233 -1.8620174085976 136.0 164.0 210.0
4.4356686667914085 3.5061516851914236 1.4098825914023987 143.0 158.0 207.0
1.486428666791409 0.3019916851914234 1.7518825914023992 172.0 48.0 89.0
-0.9110523332085911 -1.7179523148085767 0.6354825914023987 72.0 56.0 47.0
-1.540271333208591 0.5117316851914234 -1.3651174085976 240.0 178.0 214.0
-1.230501333208591 -0.38207731480857665 0.3740825914024004 128.0 86.0 85.0
-0.19794033320859108 -5.096358314808577 0.3611825914024003 137.0 110.0 81.0
1.854268666791409 0.1083886851914233 2.387582591402399 142.0 126.0 93.0
-1.475731333208591 0.0954816851914233 -1.3393174085975996 135.0 65.0 78.0
-1.898441333208591 1.7411216851914233 -0.26481740859760095 156.0 83.0 93.0
2.8061586667914087 1.8476116851914233 -2.0653174085976005 120.0 66.0 75.0
0.4312756667914089 1.8153416851914232 -1.7459174085976006 241.0 144.0 172.0
-1.0659363332085912 -1.5178933148085767 -0.9392174085976013 105.0 62.0 64.0
-2.969721333208591 1.3571416851914235 -0.5584174085976006 185.0 57.0 82.0
-2.4953813332085915 2.4477816851914236 -2.546117408597601 254.0 254.0 253.0
0.47645066679140896 -1.2500733148085765 -0.8811174085975999 93.0 92.0 81.0
1.8445886667914089 0.23100168519142328 2.955482591402399 145.0 36.0 67.0
-0.06241632320859107 2.5123216851914236 2.652182591402399 254.0 254.0 254.0
-2.5405613332085912 1.6056016851914237 0.5547825914024003 245.0 238.0 242.0
0.8329236667914088 -1.3005823148085767 1.4041825914023995 100.0 79.0 62.0
1.712298666791409 0.2761816851914233 2.829682591402399 178.0 170.0 168.0
-0.19148633320859107 -4.128338314808577 0.2159825914023994 84.0 73.0 49.0
1.079848666791409 2.8059516851914235 -2.7526274085976006 206.0 150.0 180.0
-1.753231333208591 1.5572016851914237 -0.18411740859760073 70.0 46.0 62.0
0.682512666791409 -2.5481083148085766 1.1691825914024 174.0 175.0 144.0
1.980118666791409 2.9963316851914237 -1.1554174085976001 135.0 92.0 153.0
-2.1178613332085914 1.4345816851914233 -1.7233174085976 183.0 156.0 145.0
0.30865966679140894 -4.583308314808577 0.799982591402399 118.0 81.0 43.0
-0.8884643332085911 -2.0277183148085767 0.5741825914023995 72.0 65.0 48.0
-3.0891113332085913 1.7411216851914233 -0.5907174085975999 153.0 186.0 225.0
-0.28290533320859107 -4.6907283148085765 -0.2539174085975997 67.0 59.0 43.0
-2.1114013332085912 0.9215316851914234 0.5450825914023998 190.0 206.0 225.0
1.389618666791409 -0.9822533148085766 0.1965825914024002 150.0 98.0 100.0
-3.173001333208591 1.7088516851914233 -0.623017408597601 165.0 209.0 239.0
-0.8529703332085912 -2.1083883148085767 -0.8456174085976009 93.0 47.0 51.0
-2.275971333208591 0.4149316851914234 -0.9005174085976009 189.0 63.0 87.0
0.6861896667914089 0.7279216851914233 0.10628259140239926 83.0 25.0 30.0
-2.3953613332085912 2.2606316851914237 -2.1879474085975996 255.0 255.0 255.0
-1.720971333208591 1.5442916851914235 -0.14861740859759998 159.0 132.0 182.0
-2.2211113332085914 0.07289468519142339 -0.6423174085976004 184.0 126.0 141.0
1.057268666791409 1.5346116851914235 -2.0169174085975996 180.0 203.0 227.0
-2.3114613332085914 1.9766816851914233 -2.171817408597601 180.0 163.0 189.0
-2.1243113332085914 -0.46919931480857663 -0.403517408597601 62.0 55.0 81.0
4.780938666791409 3.2835116851914234 1.7325825914023998 135.0 152.0 196.0
-2.3372713332085913 1.1538516851914236 0.5450825914023998 158.0 173.0 191.0
4.471168666791408 1.8153416851914232 1.103382591402399 135.0 166.0 210.0
-1.872621333208591 0.7343816851914234 -1.5748174085975997 232.0 192.0 199.0
-2.1178613332085914 -0.20137931480857663 -0.6455174085976001 154.0 62.0 80.0
-1.378931333208591 1.4345816851914233 0.028782591402398694 174.0 170.0 205.0
-0.9233003332085912 -2.7208883148085765 0.4822825914023987 123.0 97.0 82.0
-2.4179413332085913 1.9153716851914235 -2.213767408597601 232.0 123.0 151.0
-0.6948593332085911 -4.976968314808577 0.025582591402399046 35.0 27.0 19.0
-2.153351333208591 2.1347916851914235 0.9322825914023998 211.0 123.0 164.0
-1.359571333208591 1.0344616851914235 2.1455825914024 229.0 243.0 248.0
0.21831066679140892 -3.5281583148085764 -0.15511740859760081 133.0 112.0 93.0
-0.35605133320859106 -4.689788314808577 0.3934825914023996 84.0 72.0 58.0
3.070758666791409 1.7475816851914234 -1.6039174085976011 149.0 169.0 212.0
1.7445686667914089 2.9285716851914234 -1.4716174085976004 161.0 54.0 84.0
-0.21117333320859108 -3.9515483148085764 -0.21891740859759956 189.0 166.0 131.0
0.4086886667914089 -3.9605483148085767 1.019482591402399 93.0 76.0 52.0
0.30865966679140894 -4.544588314808577 0.7257825914023996 171.0 161.0 144.0
-2.2404713332085913 1.8411516851914236 -1.881417408597601 255.0 255.0 255.0
0.1957236667914089 -4.776908314808577 0.6580825914023993 70.0 64.0 43.0
1.889768666791409 1.9831316851914234 1.697082591402399 160.0 169.0 208.0
-0.8916913332085912 -0.07876331480857668 1.0549825914023998 95.0 33.0 40.0
0.0046806667914089245 -2.075798314808577 -0.657317408597601 73.0 60.0 37.0
1.680028666791409 2.1799616851914236 -1.1231174085976008 172.0 174.0 180.0
-2.4824813332085913 1.6701316851914236 0.36768259140239934 255.0 255.0 255.0
2.9738086667914088 0.8441816851914233 0.913582591402399 108.0 125.0 151.0
-1.107881333208591 -0.5466413148085767 0.3611825914024003 139.0 93.0 86.0
-2.2953313332085914 2.7156016851914235 -0.5455174085976005 243.0 254.0 254.0
-2.259831333208591 2.0444416851914236 -2.255707408597601 255.0 255.0 255.0
-0.16686833320859107 -1.5650233148085766 -0.0708174085976001 186.0 166.0 137.0
-2.2404713332085913 -0.6176303148085767 0.19018259140239913 160.0 135.0 128.0
2.1672686667914087 0.36653168519142343 2.6166825914024 137.0 142.0 141.0
-1.572531333208591 0.1245226851914234 -1.3135174085976011 85.0 54.0 42.0
0.5571196667914089 2.6317016851914237 3.3071825914024 229.0 184.0 215.0
-2.6696313332085913 2.5187716851914232 -2.5009474085976002 255.0 255.0 255.0
-0.3366903332085911 -0.5885893148085767 0.0223825914023994 185.0 187.0 185.0
-1.330531333208591 -2.4504283148085766 -0.00991740859759993 221.0 212.0 192.0
2.0317386667914086 2.1960916851914236 1.1839825914023994 79.0 32.0 55.0
-0.09791133320859108 -5.212518314808577 -0.49711740859759956 174.0 101.0 68.0
1.815548666791409 3.0156916851914235 -1.3167174085976008 137.0 152.0 193.0
0.618427666791409 -0.21428631480857663 -1.1812174085976004 147.0 53.0 58.0
2.844888666791409 1.8927816851914234 -1.591017408597601 131.0 171.0 212.0
-0.769446333208591 -3.7103383148085767 0.36848259140239925 111.0 83.0 61.0
0.2086306667914089 2.6091216851914236 3.0974825914024002 255.0 255.0 255.0
1.286368666791409 0.05030668519142334 1.9648825914024002 195.0 141.0 145.0
0.33447366679140894 3.202841685191424 1.3453825914023998 254.0 255.0 254.0
-0.4722143332085911 -3.1151383148085765 0.5805825914023988 68.0 48.0 43.0
0.8249396667914088 1.3861816851914233 -0.5068174085976 82.0 46.0 45.0
1.9736586667914089 2.7123716851914232 -1.3361174085976 79.0 50.0 55.0
1.176658666791409 1.6185116851914234 -1.9750174085975996 29.0 30.0 24.0
-0.8400633332085912 -0.2207403148085767 1.0387825914024003 98.0 95.0 83.0
0.16668266679140892 -3.9895883148085765 0.07078259140240029 51.0 66.0 27.0
-1.175641333208591 -3.1086783148085764 0.0223825914023994 248.0 182.0 197.0
-0.8658773332085912 -1.9050983148085767 0.5870825914023996 90.0 97.0 86.0
-2.1985213332085913 1.8153416851914232 -1.813617408597601 255.0 255.0 255.0
-2.3921313332085914 -0.23687331480857665 -0.7617174085976011 139.0 51.0 77.0
0.45063666679140896 -0.8305952448085766 -0.09701740859760122 122.0 122.0 108.0
-0.11727133320859107 -4.534908314808577 0.10308259140239961 57.0 39.0 27.0
0.834619666791409 -1.8760583148085765 0.12888259140239988 175.0 177.0 163.0
-1.291811333208591 1.0247816851914235 2.1100825914023993 235.0 247.0 255.0
-2.2791913332085914 0.9892916851914234 2.745782591402399 241.0 180.0 211.0
1.505778666791409 -0.004547314808576619 2.3230825914024003 113.0 101.0 92.0
-0.2780543332085911 -4.939928314808577 -0.31491740859759965 59.0 35.0 25.0
0.2634846667914089 -4.9737383148085765 0.6709825914023995 209.0 198.0 142.0
2.8158486667914087 1.9702216851914236 -2.129917408597601 225.0 220.0 229.0
-2.3534113332085913 -0.3336763148085766 0.07718259140239958 132.0 43.0 53.0
-1.798411333208591 0.8215016851914233 -1.3103174085975997 140.0 97.0 102.0
-1.356341333208591 -0.47565331480857664 -1.1618174085976012 94.0 77.0 66.0
-2.3050113332085913 0.42783168519142334 -0.8359174085976004 199.0 146.0 167.0
2.415728666791409 1.1603116851914232 -1.107017408597601 122.0 39.0 46.0
1.654218666791409 2.3993816851914236 -1.1876174085975997 38.0 34.0 37.0
3.190148666791409 1.7733916851914233 -1.8039174085976004 147.0 171.0 214.0
-1.537041333208591 0.45688168519142336 -1.4361174085975996 204.0 149.0 153.0
-3.0536113332085915 1.3281016851914234 -0.5842174085976009 199.0 95.0 123.0
0.679735666791409 1.1506316851914233 -0.5649174085975996 128.0 136.0 167.0
2.5653886667914088 0.4544016851914233 0.8576825914023996 146.0 141.0 133.0
0.3828746667914089 3.6739416851914237 2.0551825914023993 255.0 255.0 255.0
2.1704986667914086 0.7182416851914234 -1.2619174085976006 65.0 45.0 34.0
-0.17212633320859105 -3.6088283148085765 0.33858259140239966 97.0 90.0 72.0
-0.19205833320859106 -2.8130083148085765 -0.14561740859759986 80.0 64.0 47.0
-1.3047113332085911 0.4794616851914234 -1.245717408597601 210.0 173.0 191.0
-0.2630903332085911 -4.340908314808577 -0.24991740859760014 85.0 60.0 36.0
1.118568666791409 0.12774868519142335 0.31928259140240023 171.0 143.0 123.0
0.6313346667914088 -1.3242883148085767 -0.42611740859759983 88.0 77.0 47.0
-0.0004033332085910807 -2.111388314808577 -0.6184174085976011 85.0 54.0 43.0
0.7378176667914089 3.1867116851914234 1.7583825914024 254.0 254.0 254.0
0.5313056667914089 2.5542616851914235 3.2523825914024 217.0 156.0 198.0
4.235618666791408 3.0705416851914236 1.3614825914023996 119.0 96.0 133.0
1.218598666791409 2.3413016851914237 -2.7074574085976 199.0 229.0 248.0
5.1068386667914085 3.2157516851914236 0.9774825914023992 166.0 165.0 214.0
1.263778666791409 2.4413316851914235 -1.0747174085976 126.0 157.0 200.0
-2.866461333208591 1.1699916851914232 -0.5165174085976005 251.0 254.0 254.0
1.609038666791409 -0.01422831480857667 1.7099825914023992 149.0 150.0 146.0
2.8061586667914087 1.9347316851914234 -1.5845174085976002 136.0 163.0 204.0
-0.21108533320859107 -3.5295683148085764 -0.18981740859759988 123.0 116.0 92.0
0.860433666791409 -0.37562431480857666 -0.5326174085976003 162.0 74.0 87.0
-0.2483143332085911 -5.020148314808576 -0.27981740859759974 75.0 57.0 39.0
-0.20701133320859108 -1.4087953148085766 -0.03561740859760043 105.0 87.0 71.0
4.293698666791409 2.0573416851914232 1.0549825914023998 66.0 60.0 92.0
-0.8271563332085912 0.5278616851914234 0.03528259140239953 147.0 59.0 75.0
1.118568666791409 1.1054516851914236 -0.7359174085976008 121.0 63.0 92.0
-2.340501333208591 0.12774868519142335 -0.3874174085976012 213.0 162.0 179.0
-0.11081833320859108 1.8831016851914235 2.3585825914023992 169.0 197.0 227.0
0.23121766679140893 2.5220016851914235 2.803782591402399 252.0 249.0 251.0
-2.501841333208591 0.6440316851914233 -0.8940174085976 198.0 191.0 218.0
0.540985666791409 2.9705116851914233 1.406682591402399 161.0 182.0 179.0
-2.1243113332085914 0.8957116851914234 -1.3522174085975998 183.0 58.0 86.0
-0.9852673332085911 -0.36271731480857666 0.33218259140240036 219.0 188.0 206.0
-0.4238123332085911 -3.7701683148085765 0.48378259140239877 74.0 58.0 43.0
1.786508666791409 0.2503616851914233 2.6424825914024 161.0 153.0 158.0
0.6571486667914088 3.1124916851914235 1.6453825914023987 253.0 253.0 253.0
-0.14953933320859109 -3.9476383148085765 0.1578825914023998 73.0 58.0 44.0
-0.7077663332085911 -5.183478314808577 -0.11641740859760041 135.0 106.0 76.0
1.134708666791409 1.0118816851914234 -0.6391174085976008 148.0 65.0 95.0
4.135588666791409 1.8411516851914236 0.993582591402399 148.0 166.0 206.0
4.293698666791409 3.502931685191424 1.5937825914024 133.0 160.0 207.0
-0.3076493332085911 -0.7499273148085767 0.07398259140239993 59.0 52.0 44.0
1.986568666791409 0.5730416851914234 2.7392825914024 94.0 65.0 73.0
1.915578666791409 0.17937168519142344 3.0296825914024 105.0 104.0 98.0
1.121798666791409 -0.5692293148085766 -0.4713174085976011 111.0 99.0 109.0
-2.033961333208591 1.4313516851914234 -1.7588174085976007 153.0 70.0 93.0
-2.7567513332085913 0.8860316851914233 -0.5842174085976009 133.0 86.0 101.0
1.515468666791409 0.030946685191423406 2.3294825914023995 167.0 157.0 150.0
1.496098666791409 3.293191685191424 -0.8004174085975997 181.0 97.0 130.0
-1.543491333208591 -0.007774314808576599 -1.0586174085976001 163.0 55.0 75.0
-1.808091333208591 1.3055116851914232 -0.11641740859760041 99.0 54.0 63.0
-1.449921333208591 1.0796416851914232 0.16108259140239944 172.0 187.0 214.0
0.8184856667914089 1.6314116851914235 -2.0944174085976 90.0 32.0 52.0
-0.07855033320859107 -3.6088283148085765 0.25148259140240015 215.0 189.0 155.0
0.3957816667914089 1.7927516851914236 -1.8007174085976008 149.0 92.0 107.0
1.505778666791409 0.3084516851914233 1.7421825914023987 217.0 133.0 152.0
1.402528666791409 2.3509816851914236 -2.3266974085975995 136.0 162.0 208.0
-0.604510333208591 -3.5507483148085766 -0.7036174085975997 182.0 148.0 114.0
0.703519666791409 -2.1592583148085764 1.2285825914024002 97.0 87.0 71.0
0.8055786667914089 -2.3374883148085766 0.40638259140239974 127.0 126.0 101.0
2.3802286667914085 1.0957716851914232 -1.2522174085976001 218.0 165.0 161.0
-2.582511333208591 -0.13361731480857664 -0.3971174085975999 162.0 62.0 85.0
5.226228666791409 2.8027216851914236 0.8774825914023996 167.0 124.0 159.0
0.7765386667914089 -0.6789383148085766 -0.7843174085975999 68.0 16.0 21.0
2.899738666791409 1.2022516851914236 -1.7781174085976001 137.0 135.0 137.0
-0.8658773332085912 -2.3278083148085766 -0.816617408597601 72.0 61.0 41.0
0.9669186667914089 -0.3465833148085766 -1.0360174085976013 135.0 71.0 74.0
0.5990666667914089 -4.7317383148085765 -0.3842174085975998 87.0 66.0 41.0
2.657738666791409 2.0444416851914236 -1.8233174085975996 136.0 105.0 129.0
-1.8145413332085911 -1.2500733148085765 0.006282591402399618 242.0 150.0 160.0
-0.019045333208591073 -2.9062083148085764 -0.5929174085976001 166.0 144.0 121.0
-2.040411333208591 1.2280716851914235 -1.687817408597601 176.0 157.0 195.0
1.357358666791409 2.3348416851914235 -2.3847774085976 136.0 162.0 207.0
-0.1398583332085911 -3.0925483148085764 0.4224825914023995 106.0 97.0 78.0
-0.4109053332085911 -4.154148314808577 -0.17441740859760024 93.0 77.0 64.0
0.35383366679140893 -4.486508314808577 0.7064825914024002 184.0 166.0 139.0
1.531598666791409 0.9667016851914233 -0.5326174085976003 132.0 144.0 155.0
-1.704831333208591 -0.06908231480857663 0.799982591402399 214.0 204.0 195.0
0.721009666791409 -1.8078103148085767 1.3097825914023993 108.0 92.0 73.0
4.458258666791409 2.7962716851914236 1.5066825914023987 203.0 111.0 147.0
-2.3534113332085913 1.9218216851914236 -2.365417408597601 193.0 151.0 167.0
1.105668666791409 2.4606916851914233 -0.37131740859759965 184.0 83.0 123.0
0.731363666791409 -4.3122583148085765 -0.5391174085976012 55.0 57.0 30.0
-1.969421333208591 1.9250516851914234 -0.27451740859759965 154.0 139.0 146.0
-2.6180013332085914 1.5120216851914234 0.5257825914024004 168.0 106.0 130.0
-2.6212313332085913 -0.26591431480857664 0.11598259140239975 93.0 33.0 42.0
3.312758666791409 1.2603416851914235 0.9193825914023996 125.0 94.0 87.0
0.41191566679140895 0.9150716851914235 -0.9585174085976007 162.0 181.0 209.0
-0.25076833320859104 -2.4875183148085767 -0.1433174085975999 84.0 61.0 48.0
-1.072391333208591 -0.8951302148085767 1.8035825914023995 119.0 60.0 61.0
-2.4728013332085914 1.2958316851914233 0.43538259140239965 255.0 255.0 255.0
-0.020469333208591074 -3.2119383148085765 0.3934825914023996 167.0 157.0 124.0
-0.017242333208591074 2.1735116851914236 2.4778825914024 253.0 251.0 254.0
0.1860426667914089 1.5862416851914234 1.9422825914023996 100.0 73.0 102.0
2.464128666791409 1.2732416851914237 -0.9973174085976009 171.0 59.0 83.0
2.0317386667914086 0.7182416851914234 2.7715825914023995 172.0 157.0 178.0
2.8222986667914087 1.6443216851914233 -1.8588174085976004 150.0 180.0 219.0
0.2215376667914089 -3.9895883148085765 0.06758259140239886 181.0 152.0 121.0
0.7507246667914089 -0.7467002148085766 -0.6681174085976007 88.0 28.0 28.0
1.686478666791409 2.3800216851914233 -1.232817408597601 142.0 164.0 202.0
-2.033961333208591 2.1799616851914236 -0.46481740859760023 110.0 90.0 100.0
-1.424101333208591 -0.1820193148085767 -1.2619174085976006 64.0 37.0 28.0
-1.924251333208591 0.5278616851914234 2.4811825914023995 134.0 58.0 81.0
-3.2181813332085913 1.5959216851914233 -0.5842174085976009 236.0 230.0 232.0
-2.1339913332085914 1.4926616851914236 -1.9072174085976012 211.0 230.0 248.0
0.32156666679140894 -4.696238314808577 0.5999825914023997 191.0 164.0 134.0
0.41514266679140893 2.7285116851914233 3.423382591402399 254.0 254.0 254.0
0.47967766679140894 2.3961516851914233 3.0813825914024005 255.0 255.0 255.0
0.46677066679140894 3.370631685191423 1.587382591402399 255.0 255.0 255.0
0.937878666791409 2.3380716851914234 -0.4164174085976011 134.0 167.0 203.0
4.216258666791409 1.7798416851914234 1.0678825914024 144.0 169.0 208.0
1.534828666791409 2.0283016851914235 -2.2363474085976005 155.0 69.0 96.0
-0.017350333208591077 -2.9824683148085764 -0.5879174085976011 162.0 138.0 116.0
1.767148666791409 2.7026916851914233 -1.2070174085976006 127.0 158.0 199.0
2.464128666791409 1.2538816851914234 -1.4038174085976003 33.0 24.0 14.0
1.321858666791409 2.2315916851914235 -2.3847774085976 205.0 100.0 132.0
0.3635146667914089 3.6610416851914236 2.084282591402399 255.0 255.0 255.0
-2.382451333208591 -0.5240543148085767 0.32888259140239917 84.0 64.0 54.0
1.441248666791409 -0.1271643148085766 2.2520825914023987 187.0 187.0 168.0
-1.930701333208591 2.0734816851914233 -0.403517408597601 125.0 46.0 71.0
-0.46576033320859106 -3.1506283148085767 0.509582591402399 182.0 164.0 140.0
1.7477886667914089 2.5413616851914234 -1.3619174085976002 85.0 27.0 42.0
-1.101431333208591 -3.2087083148085767 0.04498259140240002 95.0 71.0 61.0
-2.340501333208591 1.9315016851914235 -2.352517408597601 254.0 255.0 254.0
-2.4469813332085915 1.5378416851914234 -1.1715174085976 179.0 179.0 181.0
0.05051966679140893 -2.3697583148085766 -0.7101174085976005 80.0 67.0 44.0
1.515468666791409 -0.001321314808576668 2.3230825914024003 125.0 119.0 112.0
0.11505466679140894 -5.025368314808577 0.5063825914023994 67.0 51.0 39.0
0.666828666791409 3.3028716851914233 1.8970825914024 254.0 255.0 255.0
-2.8438713332085914 1.9508616851914233 0.6257825914024 154.0 110.0 115.0
0.6829626667914088 -0.6337643148085766 -0.7423174085976001 97.0 96.0 94.0
2.631918666791409 2.0347616851914236 -1.1134174085976003 181.0 89.0 128.0
0.5764796667914089 3.225431685191423 1.7034825914024 255.0 255.0 255.0
1.6993886667914089 2.0928416851914236 -0.8940174085976 163.0 156.0 182.0
-0.8239293332085911 -1.6824573148085766 0.5579825914023999 58.0 43.0 32.0
-0.23505133320859106 -4.564788314808577 -0.20131740859759972 75.0 65.0 45.0
1.521918666791409 -0.6531243148085767 -0.9166174085976007 150.0 72.0 75.0
-2.308231333208591 -0.10457731480857668 -0.5552174085976009 105.0 71.0 67.0
0.6732826667914089 0.15356268519142335 1.242082591402399 190.0 175.0 175.0
1.541278666791409 -0.5982693148085767 -0.9101174085975998 92.0 35.0 33.0
-3.2988513332085914 1.7056316851914235 -0.47781740859760014 157.0 109.0 133.0
0.744270666791409 -0.6498973148085767 -0.7972174085976 43.0 34.0 25.0
-0.08823033320859107 -3.1280383148085766 0.4095825914023994 91.0 71.0 47.0
4.519568666791408 1.9347316851914234 1.3162825914024001 147.0 167.0 208.0
2.867468666791409 2.6672016851914235 -1.397417408597601 122.0 158.0 202.0
-2.1920713332085913 0.36653168519142343 -0.6875174085975999 96.0 31.0 60.0
-0.16259333320859107 -1.2292013148085768 0.08228259140240013 153.0 62.0 67.0
0.08278666679140892 -3.7959783148085764 -0.038917408597599845 102.0 80.0 64.0
-1.6693413332085911 -0.1400713148085766 0.896782591402399 147.0 136.0 140.0
1.418658666791409 0.1600166851914233 2.4391825914023997 136.0 135.0 124.0
1.221828666791409 -1.8050743148085766 -0.7843174085975999 131.0 115.0 97.0
-0.817476333208591 -4.086388314808577 0.1998825914023996 178.0 117.0 93.0
2.293108666791409 1.4733016851914233 -1.342517408597601 213.0 133.0 161.0
-1.772591333208591 -1.3275153148085765 0.14498259140239966 174.0 66.0 81.0
2.212438666791409 1.3216516851914233 -1.4845174085976005 166.0 169.0 201.0
-0.920732333208591 -1.5340273148085766 0.6289825914023996 111.0 81.0 60.0
2.6286886667914087 1.3248716851914235 -1.6233174085976003 224.0 242.0 251.0
-1.782271333208591 1.3151916851914236 0.5418825914024001 170.0 185.0 212.0
-2.1823913332085914 1.0151016851914232 -1.4780174085975997 142.0 54.0 83.0
0.653921666791409 2.9640616851914237 1.6195825914024002 255.0 255.0 255.0
-2.3372713332085913 2.1573716851914235 -1.9621174085976012 255.0 254.0 255.0
-1.6241613332085911 0.31813168519142343 -1.3458174085976005 208.0 189.0 180.0
1.328308666791409 0.27295168519142343 2.181082591402399 141.0 134.0 124.0
-0.16889933320859107 -3.8217983148085763 0.3127825914023994 64.0 54.0 35.0
-0.18503333320859106 -3.7540283148085765 -0.5487174085976001 87.0 65.0 48.0
-0.42058633320859107 -4.196098314808577 0.4869825914024002 92.0 77.0 54.0
-2.7890213332085914 0.9505716851914233 -0.5810174085976012 220.0 191.0 223.0
1.5574086667914089 -0.5660023148085767 -0.9101174085975998 239.0 174.0 197.0
0.02793266679140892 2.2509516851914233 2.6166825914024 255.0 255.0 255.0
-0.13428533320859107 -3.4451183148085764 -0.6116174085976009 96.0 91.0 54.0
-1.030441333208591 1.2893816851914233 -1.4458174085976 110.0 71.0 73.0
1.279908666791409 2.4639116851914236 -1.0844174085976004 139.0 157.0 209.0
1.547728666791409 -0.14975131480857662 -1.1199174085976011 74.0 63.0 56.0
0.24412466679140893 -5.202838314808576 0.35468259140239944 126.0 94.0 47.0
-2.1598013332085912 0.07934768519142332 -0.5875174085976003 168.0 120.0 131.0
0.615200666791409 0.2858616851914234 0.080482591402399 65.0 51.0 49.0
-0.3657313332085911 -4.292898314808577 0.42898259140240036 41.0 27.0 19.0
-0.4173593332085911 -4.134788314808577 -0.18091740859760108 62.0 62.0 54.0
-0.25564433320859103 -4.331788314808577 -0.238117408597601 64.0 61.0 40.0
-0.29151633320859105 -4.999558314808577 -0.5197174085976002 154.0 102.0 64.0
-0.30442333320859105 -5.157668314808577 -0.6520174085976009 191.0 152.0 102.0
1.544508666791409 1.5055716851914234 -1.0231174085976011 130.0 85.0 111.0
-2.0533213332085913 0.6892016851914234 2.6069825914023994 126.0 56.0 71.0
0.2247636667914089 -4.660748314808576 0.7322825914023987 81.0 62.0 46.0
0.03687966679140893 -2.136808314808577 -0.6387174085976 80.0 74.0 73.0
0.460316666791409 -1.9567283148085766 -0.32291740859760054 97.0 87.0 70.0
1.244418666791409 1.3603716851914234 -1.3458174085976005 128.0 49.0 65.0
1.308948666791409 0.1083886851914233 1.9971825914023995 147.0 138.0 127.0
-2.324371333208591 2.1573716851914235 -1.9427174085976002 177.0 170.0 175.0
0.46677066679140894 2.2348116851914233 2.4682825914023994 250.0 250.0 251.0
2.3286086667914088 1.4733016851914233 -1.3264174085976013 156.0 174.0 209.0
0.1828166667914089 -5.135078314808577 -0.3196174085976011 50.0 39.0 29.0
0.43772966679140896 3.7158916851914237 1.987482591402399 254.0 254.0 254.0
3.2127386667914086 1.7572616851914233 -1.7685174085976012 146.0 165.0 207.0
-0.22052733320859108 -5.035048314808576 0.048182591402399666 43.0 36.0 25.0
-2.550241333208591 0.19551168519142326 -0.7520174085976006 70.0 70.0 79.0
-0.907825333208591 -1.7953943148085767 0.5999825914023997 61.0 29.0 27.0
-1.327301333208591 0.5472316851914233 -1.2619174085976006 176.0 137.0 148.0
0.6571486667914088 -2.737608314808577 0.3127825914023994 190.0 160.0 144.0
-2.4082613332085914 -0.11103031480857661 0.048182591402399666 119.0 66.0 65.0
-0.28439333320859106 -4.812438314808577 -0.2844174085975997 68.0 59.0 25.0
1.902678666791409 1.8217916851914233 1.2097825914023996 145.0 46.0 70.0
2.6061086667914086 1.9992616851914233 -1.949217408597601 137.0 160.0 202.0
-0.5109353332085911 -2.6762983148085766 0.5870825914023996 51.0 49.0 38.0
4.125908666791409 1.8056616851914233 1.0710825914023996 151.0 171.0 213.0
-2.405041333208591 2.2832216851914233 -2.452547408597601 254.0 254.0 254.0
-2.082361333208591 1.0312416851914232 0.37728259140240006 223.0 204.0 197.0
-0.11081833320859108 -2.6343483148085767 0.606382591402399 105.0 96.0 71.0
1.812328666791409 0.15678968519142333 2.748982591402399 120.0 41.0 55.0
-0.19148633320859107 -4.079938314808577 0.2062825914023989 89.0 74.0 50.0
1.299268666791409 2.7156016851914235 -0.7778174085976008 149.0 150.0 187.0
3.222418666791409 1.3087416851914235 0.993582591402399 150.0 174.0 211.0
-1.595121333208591 0.44720168519142345 0.38698259140239877 221.0 161.0 172.0
-0.5367493332085911 -2.7634183148085767 0.5967825914024001 41.0 39.0 28.0
0.49258466679140894 1.5830116851914235 2.2713825914024 123.0 54.0 79.0
1.857498666791409 1.8282416851914234 1.2388825914023993 103.0 29.0 44.0
1.576768666791409 -0.001321314808576668 -0.5778174085975998 111.0 24.0 41.0
-2.211431333208591 1.5830116851914235 0.8645825914023995 255.0 255.0 255.0
1.079848666791409 1.9121416851914232 -0.8392174085975999 152.0 175.0 210.0
5.1487886667914085 2.7511016851914234 1.0032825914023995 71.0 40.0 61.0
1.560638666791409 0.42138168519142327 0.9032825914023999 165.0 103.0 112.0
2.7009586667914087 0.5560816851914233 0.874682591402399 77.0 67.0 66.0
0.3457446667914089 -0.9580413148085767 1.0869825914023998 183.0 164.0 152.0
0.944328666791409 -0.01100131480857669 -0.4810174085975998 92.0 63.0 73.0
-1.133701333208591 -0.7757412148085766 0.4805825914023991 50.0 31.0 30.0
-0.017350333208591077 -2.9672183148085765 -0.5946174085975997 150.0 140.0 114.0
1.644528666791409 2.2122316851914237 2.1358825914023996 225.0 129.0 157.0
0.628107666791409 -3.0215583148085767 1.0871825914023994 206.0 179.0 151.0
0.015025666791408931 2.2186816851914233 2.6295825914024 255.0 255.0 255.0
-1.608031333208591 0.6375716851914234 0.06428259140239945 59.0 44.0 35.0
-0.7981153332085911 -0.6918453148085766 1.8164825914023996 96.0 41.0 38.0
-3.398871333208591 1.7863016851914235 -0.4713174085976011 147.0 178.0 217.0
-1.269221333208591 1.2377516851914234 0.015882591402400337 179.0 173.0 181.0
-3.0536113332085915 1.4087716851914234 -0.526217408597601 189.0 84.0 102.0
1.105668666791409 0.1632436851914234 0.3127825914023994 103.0 75.0 80.0
-2.624451333208591 2.5639416851914234 -1.9717174085976001 242.0 245.0 250.0
-0.12760333320859107 -1.1054243148085767 0.0953825914023998 92.0 79.0 63.0
1.696158666791409 2.2896716851914234 -0.7327174085976011 156.0 169.0 214.0
-1.485411333208591 0.35362168519142345 0.18698259140239948 82.0 66.0 68.0
-0.010788333208591072 -4.954378314808577 -0.1906174085975998 37.0 38.0 19.0
-1.992011333208591 2.4574616851914235 -0.44231740859760116 156.0 170.0 204.0
-1.788731333208591 -0.5756823148085766 -0.4552174085976013 106.0 53.0 42.0
-2.114631333208591 1.0635116851914233 0.38698259140239877 155.0 101.0 116.0
0.5442126667914089 0.6053116851914234 0.05788259140240015 198.0 207.0 220.0
-0.12791233320859108 -1.2398223148085767 0.09168259140239954 152.0 124.0 104.0
-2.485701333208591 1.5055716851914234 0.4192825914023999 254.0 254.0 254.0
-2.6018713332085914 1.8540616851914233 0.509582591402399 253.0 254.0 254.0
-0.6529123332085911 -3.2022583148085766 -0.7359174085976008 191.0 164.0 136.0
1.021768666791409 -2.5085083148085765 -0.7391174085976004 111.0 96.0 76.0
-1.366021333208591 -0.28850131480857666 0.5547825914024003 86.0 54.0 45.0
-1.662881333208591 -0.8886772148085766 -0.21641740859760006 194.0 133.0 105.0
2.609328666791409 1.4119916851914236 -1.6491174085976006 52.0 45.0 70.0
2.3221486667914086 2.3703416851914234 -1.8556174085976007 180.0 73.0 107.0
-2.7890213332085914 1.0344616851914235 -0.6004174085976004 132.0 47.0 78.0
0.8572066667914089 -2.1761483148085765 0.3934825914023996 131.0 103.0 84.0
-0.8271563332085912 -0.42725231480857667 0.854882591402399 91.0 84.0 76.0
-3.0471613332085914 2.0089416851914232 -1.1554174085976001 255.0 255.0 255.0
-2.217881333208591 2.4155116851914236 -0.5455174085976005 122.0 54.0 79.0
1.841368666791409 2.5671716851914232 -1.2651174085976002 143.0 156.0 200.0
0.6313346667914088 0.7279216851914233 0.06758259140239886 191.0 78.0 111.0
-0.520615333208591 -3.1667583148085767 0.8032825914024002 65.0 66.0 32.0
-1.424101333208591 2.0734816851914233 1.5260825914023997 254.0 254.0 254.0
0.9088346667914089 2.0089416851914232 -2.155717408597601 87.0 19.0 27.0
-2.0920413332085914 1.1441716851914232 -1.6458174085976012 115.0 65.0 67.0
1.531598666791409 1.5894716851914237 -1.0553174085976007 162.0 146.0 169.0
-0.15599233320859107 -3.5701083148085764 0.27088259140239934 108.0 92.0 77.0
-2.201751333208591 1.0602816851914234 -1.1973174085976002 178.0 58.0 83.0
1.063718666791409 2.0928416851914236 -1.8007174085976008 131.0 140.0 176.0
-1.4466913332085911 -0.056175314808576626 0.5353825914023993 105.0 48.0 55.0
2.9868586667914085 1.8476116851914233 -1.4651174085976013 136.0 166.0 205.0
-1.733871333208591 0.5278616851914234 -1.5878174085975996 156.0 120.0 97.0
-0.08823033320859107 -5.170578314808576 0.4030825914024003 66.0 57.0 33.0
0.1989496667914089 -1.3533293148085765 -0.00991740859759993 86.0 87.0 75.0
1.996248666791409 0.8279516851914234 2.8683825914023995 143.0 136.0 125.0
0.44095666679140894 -3.3022883148085764 0.22568259140239988 153.0 129.0 94.0
0.4441826667914089 2.1960916851914236 2.4230825914024 240.0 208.0 227.0
5.429508666791409 3.328681685191423 0.8193825914024 42.0 18.0 30.0
-2.6212313332085913 0.6698416851914234 -0.9005174085976009 171.0 196.0 232.0
0.553892666791409 -0.5369613148085767 -0.9940174085975997 111.0 60.0 65.0
-0.04305633320859108 -4.212228314808577 -0.045417408597600684 72.0 66.0 42.0
-0.8400633332085912 -0.28850131480857666 2.042282591402399 118.0 81.0 72.0
2.8158486667914087 2.2509516851914233 -1.949217408597601 151.0 170.0 197.0
0.7410436667914089 -1.0661483148085766 -0.5358174085976 52.0 23.0 25.0
-3.2343113332085913 1.5765616851914235 -0.47781740859760014 113.0 104.0 130.0
-1.756461333208591 -1.3501023148085767 -0.0744174085976006 124.0 105.0 93.0
-0.017242333208591074 -5.009238314808576 0.3837825914023991 123.0 101.0 75.0
-2.2953313332085914 -0.5660023148085767 0.2675825914023999 143.0 89.0 80.0
0.7474976667914088 1.8347016851914235 -2.1750474085976013 85.0 44.0 70.0
0.33447366679140894 -4.150918314808576 0.9451825914023999 99.0 86.0 63.0
1.686478666791409 2.2799916851914235 2.1842825914024004 167.0 85.0 113.0
0.9281956667914089 1.7927516851914236 -0.3777174085976007 190.0 114.0 133.0
0.3118866667914089 2.2445016851914237 2.8489825914024003 254.0 254.0 255.0
0.41191566679140895 0.8215016851914233 -0.8133174085975998 184.0 128.0 149.0
2.560928666791409 1.2183916851914236 -1.6297174085975996 87.0 73.0 66.0
1.531598666791409 -0.35303631480857667 1.2355825914024 197.0 105.0 143.0
-1.324071333208591 0.8505416851914233 2.1358825914023996 236.0 129.0 155.0
5.145558666791409 2.7930416851914233 0.7741825914023988 83.0 23.0 27.0
-0.2604033332085911 -2.2817083148085766 -0.13621740859760045 122.0 119.0 88.0
1.099218666791409 2.1993216851914235 -0.34221740859759997 116.0 143.0 174.0
-0.23343433320859108 -5.083448314808576 0.05788259140240015 52.0 47.0 29.0
0.579706666791409 0.06644068519142332 -1.5071174085976011 117.0 34.0 57.0
-1.740321333208591 -0.6660313148085766 2.042282591402399 122.0 41.0 51.0
2.4518386667914087 0.2967916851914233 0.8153825914024004 158.0 134.0 114.0
-1.9113413332085911 0.4794616851914234 -1.4877174085976002 146.0 115.0 122.0
-0.40767933320859107 -3.6959483148085766 0.5386825914023987 77.0 71.0 60.0
-2.114631333208591 2.1283316851914234 -0.24221740859760033 218.0 240.0 253.0
0.9669186667914089 2.3897016851914237 -2.5945174085976 175.0 94.0 124.0
1.134708666791409 2.6542916851914233 -0.6004174085976004 124.0 160.0 203.0
2.6535086667914087 0.4188116851914233 0.8254825914024 168.0 188.0 212.0
-2.1985213332085913 -0.6369903148085767 0.2675825914023999 76.0 61.0 47.0
-0.8077963332085911 -0.3917573148085767 0.7806825914023996 119.0 96.0 84.0
0.8927016667914089 0.04062668519142332 0.16108259140239944 133.0 126.0 123.0
2.0123786667914088 1.5572016851914237 -1.9653174085976008 138.0 70.0 94.0
-3.2278613332085913 2.1864116851914233 -0.8230174085976003 254.0 254.0 254.0
0.615200666791409 -0.42402531480857664 -1.0457174085976 87.0 74.0 50.0
4.664768666791408 3.1383016851914234 1.5485825914023987 97.0 57.0 63.0
1.438018666791409 1.2474316851914233 -0.9747174085976003 97.0 103.0 93.0
1.157298666791409 -1.5888823148085767 0.35468259140239944 59.0 47.0 42.0
1.647758666791409 0.3439416851914233 -1.4748174085976 91.0 25.0 40.0
-2.4405313332085914 -0.2175133148085766 0.6386825914024001 191.0 93.0 111.0
3.5579986667914087 1.7508016851914237 1.116282591402399 144.0 171.0 210.0
1.015318666791409 2.3638916851914233 -0.26481740859760095 132.0 140.0 167.0
1.9446186667914092 2.9221116851914233 -1.1199174085976011 149.0 142.0 198.0
2.341508666791409 2.1670516851914234 -1.8330174085976 147.0 63.0 86.0
-1.656431333208591 -1.7760333148085765 -0.045417408597600684 67.0 54.0 41.0
2.3286086667914088 1.9799016851914235 -2.1137174085975996 67.0 22.0 35.0
-1.643521333208591 1.0538216851914233 0.38698259140239877 156.0 160.0 156.0
-0.4948013332085911 -0.1432983148085767 0.028782591402398694 42.0 28.0 24.0
0.5571196667914089 3.2706016851914237 1.6389825914023994 154.0 145.0 156.0
-1.875851333208591 1.3990916851914235 -0.016317408597601002 226.0 242.0 254.0
-2.2082013332085912 1.2183916851914236 2.9199825914024 197.0 223.0 242.0
0.04083966679140892 -4.576848314808577 -0.18411740859760073 176.0 143.0 118.0
3.790318666791409 1.6959516851914236 1.0452825914023993 121.0 159.0 195.0
4.351778666791409 2.4058316851914237 1.3549825914023987 175.0 160.0 194.0
-2.1920713332085913 1.1054516851914236 -1.5006174085976003 208.0 224.0 242.0
2.7093586667914087 1.5991416851914235 -1.5006174085976003 58.0 33.0 33.0
-2.437301333208591 -0.21428631480857663 0.6483825914023988 190.0 139.0 148.0
1.654218666791409 1.9637716851914235 1.9551825914023997 248.0 250.0 251.0
-1.504771333208591 0.7053416851914233 0.12888259140239988 212.0 152.0 176.0
-2.114631333208591 2.0379816851914234 1.0226825914023987 138.0 79.0 97.0
-2.372771333208591 2.2315916851914235 -2.3976874085975997 254.0 254.0 254.0
-2.024281333208591 1.1893516851914234 0.7838825914023992 190.0 155.0 162.0
1.337988666791409 -0.6079503148085766 1.6583825914024004 174.0 117.0 108.0
0.024705666791408926 2.3025816851914236 2.597282591402399 253.0 253.0 253.0
0.692642666791409 -0.07876331480857668 -0.22611740859760054 63.0 42.0 40.0
0.23121766679140893 -4.338068314808576 0.8032825914024002 103.0 58.0 51.0
2.6552086667914088 0.5899716851914233 0.8542825914024004 163.0 165.0 185.0
0.7933626667914089 -1.3973133148085766 1.3663825914023988 185.0 121.0 129.0
-0.2947423332085911 -5.067318314808577 -0.6907174085975996 169.0 120.0 83.0
2.7932586667914086 1.7766216851914236 -1.397417408597601 66.0 79.0 93.0
0.47645066679140896 3.1189416851914236 1.3743825914023997 253.0 253.0 253.0
0.3764216667914089 -1.0209743148085766 -0.11641740859760041 138.0 121.0 96.0
0.47967766679140894 0.8828116851914233 1.822882591402399 183.0 202.0 227.0
2.4670886667914087 0.3256016851914233 0.8237825914024004 152.0 137.0 105.0
1.828458666791409 3.0060116851914236 -2.1524174085976 121.0 159.0 204.0
